ply
format ascii 1.0
comment VCGLIB generated
element vertex 798
property double x
property double y
property double z
element face 0
property list uchar int vertex_indices
property list uchar float texcoord
property uchar red
property uchar green
property uchar blue
property uchar alpha
end_header
0.2223757982679072 0.9952529266495578 -0.0315331338148683 
0.07813331511920556 0.8127035075055403 -0.1891509374244782 
0.05489647946450842 1.056785534164347 0.04334042358495226 
-0.003373966523530183 0.9709839409277635 -0.1818588601817721 
-0.007107260382468941 0.5530917336774687 -0.02035777418589725 
-0.1212506650170889 0.6651314965368039 -0.01855086768730508 
-0.05457025476322046 1.442624598669026 0.0005151545287012938 
-0.1419788339555527 0.007030407081320835 0.1523992166311718 
-0.03755621419448602 1.270078850046088 -0.03848471775942859 
0.1091735610455186 0.4261348711619251 0.03086610755883559 
-0.1185137869103866 0.7178004023093352 0.004512996022089303 
0.1179951202326169 0.9185103189081789 0.009296039394291977 
-0.02478106336720956 1.248245174131091 -0.004683319490560015 
-0.1015459714351457 1.108413596923684 0.01964854320376921 
-0.1180688500959451 0.5046488883026656 0.06180037747332991 
0.1210449361740829 0.5740129058317955 -0.130173362775425 
-0.09763505342289855 1.137345616524359 -0.1185230419915661 
-0.02619129130900746 0.1693162863066733 0.05301846061080714 
0.03705104890963499 0.8210818301303557 -0.1933484966833005 
0.01370044767522903 0.7922645362735894 -0.1882143385373845 
-0.1036275624941184 1.030501818872758 0.03509547014916221 
0.06121434874050524 0.9627013195121671 -0.1783203222947496 
-0.1478313771936968 0.1208022519766814 0.1067113163228191 
-0.04858770960032281 0.7059517091836669 0.07033059125515663 
-0.06105674513397685 0.03066556270184571 0.1029052004420214 
0.06905206957469026 0.4552665617272836 0.05108263202794452 
-0.04106076751450817 1.313092457242687 -0.07148197219240623 
-0.02014151379836737 0.3979996632184243 -0.06881874891442066 
-0.04460188355526926 0.6814044406725472 0.07347012221339297 
-0.04872149059704153 0.3220368251654762 0.09540282129031862 
-0.08062559920100859 1.117167879952265 -0.1070971008034869 
0.07266087217872658 0.2771432387706653 -0.1732110869059783 
-0.1268428980385671 1.260494062803346 0.09343423890424882 
0.1762953034941791 1.142271133407673 -0.01293348866733732 
-0.1263415561201954 0.5418021988709604 -0.01573451396094206 
-0.07043629476570797 0.2051848296366499 0.1435749961109782 
0.1466557060512402 0.7524946077158103 -0.1103022295860545 
0.06328381934446278 1.226973047377979 -0.1878665759082298 
0.04082222491398996 0.1144464001847602 -0.0004054937713557054 
0.05547428825399631 0.5035014462917077 -0.1511179834964108 
0.01976129700341193 0.2395486831068135 -0.04089407407273623 
0.004563394505739091 1.51605064396342 -0.1006626453418646 
-0.1175011667400599 0.2653138254166848 0.1068188212918703 
-0.07908082019960226 0.9717917590650523 -0.1084543640807259 
0.1119831997651186 1.306424336041519 -0.06231757192251881 
-0.01829280614507921 0.503002606471065 0.05482487779920478 
0.1757303425758555 1.109405166537305 -0.006394644882314938 
0.02527062241710386 0.6960757157554855 -0.106687249938733 
-0.1071952479658366 0.8674843544438329 -0.05003154144599863 
0.1514053467866899 1.018613792887245 0.06289049837466938 
0.1732869684326709 1.037538195973223 0.002677455450841476 
0.2223772624500096 1.002271417247083 -0.1249343700828281 
-0.04860375455585744 0.1484390696962462 0.1280906361872843 
-0.0458168845210244 1.407316546294207 -0.01570741638049155 
-0.08207355492194598 0.1064255140406846 -0.02397536155456653 
0.1582314734682898 0.9910062665070407 -0.1838973040669675 
0.04266204981281195 0.283399114588342 -0.03099163628917488 
0.1179844505219683 0.3151783532241598 -0.115057789603394 
0.1185262515731181 0.5308441146821955 -0.1033982564881612 
-0.1330700130148238 0.1005123490605439 0.1573094359428213 
0.1088072976357595 0.2355349772241208 -0.1190624757805923 
0.121035106544438 0.2546407303372358 -0.008559133958735534 
0.2044379587102977 1.121762784594553 -0.1334005421319456 
0.05941235143203639 1.387638982388244 -0.1187346558373654 
0.09993158808388339 1.056461742370218 -0.176761574584728 
-0.09798782414834288 0.2550433361650648 -0.03560581319007581 
0.05565282904326523 1.020587524850931 0.0448881257201842 
-0.04107542575983965 0.3946963284092824 0.07914396174406052 
-0.03969095269605609 1.19372098373087 -0.2110528118755918 
0.02511095792238315 0.3046638574409649 -0.1437344351942347 
0.007564936359493043 0.6662124261824225 0.007233042911785037 
-0.02078982537841519 1.118585686852309 0.07123681650488273 
-0.1219985881427351 1.15483391764637 -0.05499515658498211 
0.05172225913461963 0.3715360960873837 0.01957074838344131 
-0.1389604346028145 1.26459129675985 0.07069055174679924 
-0.1195696059386016 0.561763273855761 -0.03332876672606026 
-0.08481996577686236 0.9500253585851961 -0.05222375024695798 
-0.07661641619303616 0.5181071505074338 0.1170897815361285 
0.2164440445199448 1.047822638110064 -0.1372248266258979 
0.1571750322438073 0.8913067207448719 -0.1054238053031535 
0.01493041009900084 0.1585954319825121 -0.1200206021940096 
0.08578693608161826 0.7381008526169425 0.08822322982459854 
0.1522542793705676 0.82752009625862 0.04744640892375048 
0.08355506688943955 1.152931194289698 0.07933753141624436 
0.07019351620496156 1.287946522791337 -0.02369615339812732 
-0.1008967927468512 0.8855741945991387 -0.0402112275388995 
0.03284272182932203 0.1926971275610614 -0.02517979192602959 
0.1857432288361433 0.982396271824187 -0.028393842162432 
-0.1079223457213922 1.213304874264174 0.08149154107238028 
-0.02028295560188577 1.452370615567734 -0.08923805343560756 
-0.08238996405381702 1.106100630133512 -0.09044117413728395 
-0.1210593943977419 1.076546821232662 0.08816576902131333 
0.1821269311703894 0.902759134667124 -0.09191658048822493 
0.2229421693704618 0.9245748695786128 -0.1180295537544593 
0.117076694589314 1.090788303515749 0.06060796902539731 
0.000666672137052342 0.6068476628980106 0.01710797298345505 
-0.03847126952306944 1.125537690661515 0.06778531014281872 
-0.1424358923055072 1.279887797931775 -0.08600300586893175 
-0.03585305785494596 1.376686989314979 0.03381732993088724 
0.151412476359225 0.9497469477329217 -0.09661639158370372 
-0.1137135880750954 0.01853805149025382 0.1910626012723903 
0.04313730820683565 0.5892763853922636 0.01345515863373881 
0.1409774931198329 0.6272631535531327 -0.03994292882278164 
-0.0129668524318666 0.6122184916907976 0.04332379884865484 
0.06936374792649992 0.1396609600401062 -0.1680564567116433 
-0.01713517577560134 1.228210909364405 -0.003739996997743842 
0.1367757902318076 0.8229906827543688 0.05959970350729008 
0.01116201778564587 1.348996501666531 -0.0162801917376541 
0.08016633325938191 0.7695287063470109 0.08490951925350081 
-0.129407845439875 0.2473933190844164 0.07987200903939892 
-0.1054410593195402 0.8204561157506195 -0.04008288593740906 
0.1890667047766617 0.8863615713152975 -0.0002427231398286537 
-0.03062488259672821 1.438070913985603 -0.04531295378678839 
-0.03224035792238104 1.39648208565777 -0.05607142184415751 
-0.1077194355658524 0.9667060592692581 0.009961406119976925 
0.170102057293607 0.8701962883636044 0.03565635899715888 
-0.01038219861418089 1.340287572226824 -0.1204873800860651 
0.01141814973481863 0.03875884169074383 0.0305335449016458 
-0.1385507505389861 0.1693912687635389 0.1054205261721625 
0.1690060326566834 0.9787544145710478 -0.1485017917114528 
-0.001059692790353931 1.378417966502985 -0.1592945190874064 
-0.156960191470053 1.223566493807354 -0.07825530854838234 
0.05398290722506834 0.8444670872605374 -0.1947516011651055 
0.05834513825892456 0.6586220303618792 0.06338801108863212 
0.1272107292257786 1.129871437143906 -0.1743272696776506 
-0.1318179845241661 0.06323093970623297 0.08052508097936975 
0.1907900539640983 0.9115419518267756 -0.1084573701617152 
0.1227590671002438 0.2893131353470749 -0.0241279445536884 
0.1048330438426326 0.36080092343888 0.03412074090306726 
0.142119966695154 0.7253957665927946 -0.09616601015708165 
0.06337323236772843 0.1783112844067494 0.003909620116526106 
0.08642865882730244 0.09899249710707431 -0.1497190533782113 
0.1041013561065969 1.476653812147962 -0.05754494725507823 
-0.105828239065115 0.8383029955285045 -0.07995813811192937 
0.02878153812161854 0.6800028817607902 -0.1116160536030189 
-0.1020700282535384 0.02501525902292424 0.1683247208164388 
0.02702834878496163 0.5549599137495834 -0.0298456209993786 
-0.1930413860527015 1.254288089697961 0.02770562521743248 
0.1139175285353371 1.232219112033155 -0.1649470048178656 
-0.03925809918667262 0.2348936207810483 0.09403701641077697 
0.05589109312411093 0.02721035699213892 0.09093327782739322 
-0.09287388439677002 1.134923946975912 -0.01548547281050823 
-0.04875509886038189 1.280349162751988 0.009853177933147236 
0.02760037845231799 1.136632494758015 -0.1975111340226961 
0.1406407772174239 0.7079399371425176 -0.05163834219465215 
-0.001930522603926316 1.478688033709724 0.02351636818513992 
0.1031855289055642 0.2518817236605267 0.03213653081020807 
0.08242513368986804 0.1511300691129426 -0.151344431933989 
-0.03426670957453885 0.4857447394696042 0.08810450947421991 
-0.01934637065482025 0.3064814933052477 0.06063657879056594 
-0.2156466757796396 1.188267168578326 0.05271984004696575 
-0.01018263477382911 1.481437679316552 0.004308586177261199 
0.1239762107764721 0.9243127660842024 -0.002783220877936915 
0.07620383410014991 0.9881152168264556 -0.2173665551268062 
0.08065674238731201 1.061501475930986 0.1137973208024642 
-0.02286659975232108 0.7081314045774677 0.05253652588208547 
-0.03789241254715284 0.2073499555187001 -0.03613952698124262 
0.08300082071980973 0.9364111667226969 0.1203021375978743 
0.1340362362496837 0.7761822377065067 0.04903451629327455 
-0.1384052849910913 0.03909937787501244 0.1137674160610023 
-0.110826611068229 0.7877641781873174 -0.06746808288236206 
0.03040190607504457 1.524542278045923 -0.002479898787394495 
-0.1310512652065892 1.138092370354606 -0.05205602210228683 
0.009085500153696425 1.08572142337328 -0.182919008281215 
0.1357693557708148 0.5750464623431194 0.00968500834530521 
0.002028498764715652 0.6189736729493216 -0.07435467268729065 
0.06737489336351909 1.059832050314272 -0.214909924526161 
0.1002155238693145 0.5460205497367689 0.06743706296850699 
0.1376270781733618 0.8366723660948381 0.05682745342445464 
0.0527912712447654 1.507265955977705 -0.1227864749917042 
0.01022934433540869 1.36851000453398 -0.1821482216635926 
0.1591637000702762 1.092401879521372 -0.003066476545207936 
0.1874229040691403 0.9050962697901905 -0.1014475584267758 
0.03578521849572596 0.6526129692021927 0.0185878649470356 
0.2148955143628275 0.8461324152039078 -0.02823807226035386 
-0.04094717955513831 1.398406908418609 0.01087142762087495 
-0.1186966192543804 0.3731729339059737 0.1179394671750753 
-0.05674949391565039 1.427403830220424 -0.0435903411562795 
0.2212939075475011 1.107224347422583 -0.07869123473123238 
0.1639475223605622 0.8189252272861369 0.0141267770476503 
0.06202594172432026 0.4095350454811457 0.04859952343007336 
0.03080749714614744 0.4038792896472738 -0.1221509680164015 
0.03166290465836873 0.5654535603750909 -0.01652003940470039 
-0.1235921752986349 0.4197904913695729 0.06460838632848595 
-0.0381222799125817 1.362611718225648 0.007906299379676745 
-0.0164217831453678 1.331598441079257 -0.1166245556405488 
0.04592025834016726 0.7571297174594813 -0.1405604277172538 
0.0818998320346907 1.044635932587882 0.06373326852813023 
0.07517928562708495 1.197528766094007 0.04022297041513631 
-0.1122537051695977 1.110395804592042 0.03902604459899443 
-0.05148441267654514 0.5662340014219686 -0.1405012437582219 
0.1106109655789344 0.5723362100034024 -0.1341965902541482 
-0.09324428688960851 0.4468910173566372 0.1347824391626377 
-0.0837943524567213 1.182852232078783 0.001547435074565704 
-0.08522812582495401 1.295583392319549 -0.09342552271280351 
0.05237211768968556 1.390359859719096 0.05741408837428133 
-0.05266754885197122 0.1712548609505627 0.1306041194851216 
0.08114000854237768 1.263463242642927 0.01431654733439962 
-0.1700267457054087 0.01427093523326286 0.1667450648149674 
-0.02814139620148275 0.1493945027920261 0.09482283719696885 
0.08469197806484438 0.2300032455261133 -0.1553456106262882 
-0.1037372301960517 1.300284368381841 0.09794491814645599 
-0.05841033377368003 0.4014119912429666 0.1162597459565705 
0.07113507036512981 0.9757811249318821 -0.1951034206220468 
0.0201139030286935 0.3976715277494943 -0.07912465451801218 
0.08173521407093756 0.08746434561471356 -0.1579237863752155 
-0.1011020805602328 0.8435425425875628 -0.1008860242720424 
0.07377545418712059 1.088773974371458 -0.2158116727513626 
0.1254742748302781 0.2639306652617476 -0.04428164667336484 
0.1128281303605958 1.423171868144541 -0.04001575709885666 
-0.0398489717968913 1.103722102344616 -0.1623446354089651 
0.05880304809321671 0.004488965066762361 0.006962667730648931 
0.1653023207640092 1.219574547490125 -0.01055688058251656 
-0.1089778904819239 1.176336097225002 0.04607057411554978 
0.09297049708860854 1.472703935398483 -0.03564466970899487 
0.01985418243263289 0.3762467297965132 -0.1103183319358216 
-0.1428900668745008 1.205893037424853 -0.07509498908003118 
0.2367071966158827 0.9882833408298382 -0.1004430162125144 
-0.1331977606083307 0.007270751420109103 0.1797424668882235 
0.01852014712298078 0.4743161321853055 -0.06588939038276859 
0.0179879241736296 0.1201393567664666 -0.02007462219682059 
0.02117070902486669 0.5845506403040244 -0.0284355868394927 
0.1607528779062327 1.202346084151636 -0.02611196324595159 
0.09587461212029888 0.9615789518423282 -0.1945886004737891 
-0.04749249966645455 0.8850784054577917 -0.1788021955124552 
0.007727992980781291 0.7895885402799411 0.05467316224174273 
-0.1203631180938991 1.275250522839733 -0.1269935722765118 
0.07781710691473873 1.302831212746746 -0.1522689582117684 
0.08013990468299054 1.145269426321573 0.08516089234774239 
0.01817899817285057 0.7139562018999237 0.005857703311334082 
-0.02458695077252405 0.6435032431113025 -0.1540859169482618 
0.1489529203506659 0.5468019980693253 -0.03564546246451014 
-0.02760708188769424 1.358556807394252 0.01672966841081259 
-0.07396476660140391 0.9277150590327803 -0.1468180046573297 
0.03002182247295358 0.4620368986850656 -0.009243429489058722 
-0.001565294912597092 1.422110592883354 0.02461053250905107 
-0.01644628648778936 1.141779449275803 -0.2161570568593409 
0.162917012971 0.9002161148145928 0.01736831919978279 
0.1740666467844241 0.8929250160177142 -0.07640019303442905 
-0.08413273559857928 1.303696546393592 -0.1218581648832331 
-0.01949174975468176 0.4271409277297168 -0.06205706282109173 
0.2382116292504918 1.020598334264503 -0.05808434965998128 
0.115143191675949 0.521075418582468 -0.1045317981655808 
0.1452350092189081 0.9032998332533517 -0.1749509048927535 
-0.1263635502794741 0.3017733131006426 0.009956526130533458 
-0.06263916165902275 1.378038643317968 0.02568165712860652 
-0.1215513955012936 1.079637192263031 0.07835352276275917 
0.1135765916384782 0.1036283817364648 -0.08641340337773154 
-0.1094495563125465 0.3279826906717376 0.1074462436314508 
0.1975314637819175 0.8233278320634417 -0.01298696606728597 
-0.09437763447615473 1.009485823873575 -0.07898997375274446 
0.02020833756086161 0.5810781668590466 -0.06393996910233951 
-0.07652283363495012 0.9092519108190291 -0.1446317081973161 
-0.07807089464171266 0.3819080260695693 -0.06818176303623982 
-0.1214078657760837 0.6343671247621974 0.02887865627297743 
0.003879632351635388 0.09773507302555798 -0.03930487636003204 
-0.04048249573325532 1.323028276740606 -0.0764287987034364 
0.2058649985668118 0.877745090403992 -0.01228641511771289 
0.09481030185517743 0.05015983183804362 -0.1476375052287884 
0.02043534542883217 0.4415418424674229 -0.04083173839459629 
0.03783336478773203 0.7530976229776329 0.04800109238761818 
0.1376990864622408 0.7163699785315586 0.04748845192206878 
0.1107114557555822 0.7317565748957451 0.08069109499251619 
0.0181714672336895 0.1841355917762369 -0.09237641209023666 
0.03746459086411843 0.7272202448387722 -0.114957736603012 
0.0106803677538765 1.519223811889296 -0.0009168601361989295 
-0.06347395589440717 0.9287709482685684 0.01223417208377763 
0.1781022500271038 1.25824771625273 -0.09527363202869056 
0.0347997007288837 0.7135731499331472 0.02666377959175724 
-0.1229852120000219 1.280029842126195 -0.1181180342802616 
0.01599636773192 0.3725134529371816 -0.07284811890051535 
0.1024676841992752 0.9730352717463764 -0.1988918184800592 
-0.01691982684236666 1.516035664367399 -0.03993833056202249 
0.07789127762598529 0.2741929474992348 0.03285399807938613 
0.02413592970403121 0.6020140534712245 -0.01300503428124242 
0.07694442690520198 1.282842729592979 0.01026650880350023 
0.01711861629134919 0.2008664529414106 -0.07498361262266655 
0.1649236927816414 1.107081552846308 0.02939276495405106 
0.2419620414767686 0.9724030963602462 -0.07061438268305577 
-0.0448164879089326 0.6306714703130405 0.08246151455903938 
-0.1856319678260392 1.212062590540281 0.1020224947957517 
-0.05106457186374401 0.6016861936430634 0.09237727011057921 
0.2014149193723196 1.185332884076557 -0.1304378742086209 
0.1320397021031297 0.6515238259783636 -0.08622312063878956 
-0.009104089291626569 1.135750876298792 -0.2080394415072316 
0.1360708399385775 0.8433650479773609 -0.1452035321624117 
-0.03620855387122646 0.2659024103519886 0.08617456572029733 
-0.1200506445360249 0.6297376311668829 0.03799437063655362 
0.1548493182776325 1.138301752853383 -0.04043428330107804 
0.07658031644370064 1.330705100821428 -0.01474371553672664 
-0.1241110649997753 0.2101480244343666 0.1427857655131262 
-0.08094660046481195 1.243630014370663 0.05489017251511265 
-0.03127019855770165 0.1224254890842284 0.1067527102000213 
-0.1238142444106718 0.6059590094806249 0.01615195977528932 
0.1421875567553829 0.5275313181096314 0.0134853671753344 
-0.08600363746262742 0.5059075675826414 0.1211790259279872 
0.003659477310304534 0.7321163263915678 -0.168682241890416 
0.04608800888660391 0.6511429688695152 0.05043048849992576 
-0.05336133766797829 1.128057190155352 -0.1757461417802441 
-0.04182931741814002 1.38092560761783 -0.02221459164242648 
-0.1662135653767655 1.279516365269677 0.03400112310076101 
0.1404989948883318 0.4616610663538845 -0.05259133194020427 
0.1553408556112273 0.9246305164133766 -0.1435679018594753 
0.1945622740250015 1.170708883353982 -0.04754989728049878 
-0.009895456981243181 1.180386994308347 -0.209374015488118 
0.09818458744385967 0.4363165081317685 -0.1472115398053904 
-0.02382767628518152 0.22919559065217 0.06533728138877801 
0.1098780966469053 1.438938602701163 -0.0851295070416962 
-0.07852562924314796 0.4588188429213872 -0.07896945431071453 
0.07499451040286417 1.160991445168122 0.07702111686456445 
0.1432242062290772 0.6531239374588041 -0.008179403635949925 
0.2301361280941368 1.071799451634064 -0.05916297096016168 
0.221088097483137 1.127979553923057 -0.07088295214995632 
0.1676153126537772 1.131924358234143 -0.180536244499529 
-0.08280245156630348 0.372736069597042 -0.06556684806079889 
-0.01991789753404577 1.047168669168831 -0.1632860961489248 
0.09359723985729371 0.2698487476403861 0.04917241300484422 
0.101548271157063 1.47490991892664 -0.0794523156353534 
0.1691812035903943 1.275309930089908 -0.08571674754684898 
0.1420949536654694 0.4820792101714907 -0.06559580168367933 
-0.09189748708995811 0.9898093623874156 0.02054783011532815 
0.1074148502773057 0.5016553866156382 0.06087903664162147 
-0.09043427755892562 1.257206323440491 0.01347758186518494 
-0.04211797623721206 0.4130565589108143 0.08706502727058896 
-0.113175253953281 1.01645163306276 0.025594759431773 
0.1508293607425312 1.21200136216154 -0.01088781661907174 
-0.09272321628378782 0.08316826386313883 0.1677072395654073 
-0.03319471169876537 0.5986827579161378 -0.1451239858506547 
0.002749851665371004 1.146140131933137 -0.192998410686089 
-0.1171757170795786 1.250425137384066 0.0187009385367049 
0.1027402556191928 0.2957359521026547 0.01880865839796468 
-0.1039964199158413 1.066748046449143 -0.03449234181841673 
-0.1229682997762349 0.10918466550037 0.01838430639729093 
-0.1408887675119875 0.0462007422022311 0.1202605886690099 
0.08232795249097845 1.222646485235156 0.018437414414221 
-0.1228662207161559 0.6191012596028423 -0.005253160480927018 
0.1220274750605229 0.2431425987523473 -0.09794062792292521 
-0.08335646537221934 1.290286877839601 0.00517446931265292 
0.06240544858189262 0.462156516168777 0.0475960855120232 
0.1151638135308445 0.1247358987299251 -0.1134651204417732 
0.04906024395982866 0.04682455780515245 0.044983201166194 
-0.1091727311409861 0.3280485680628424 0.1314738936036597 
-0.09546064658147912 1.008031811314591 0.0983070867953957 
0.0856598722686162 1.450806173997048 0.02229567231945681 
-0.05403080327614694 1.004652855091962 -0.1452308821478918 
0.06926225879950275 0.3317727880459671 0.04669681022110781 
-0.1346704586875312 1.279044262251513 0.006407433336937474 
-0.07136530077383345 0.4477675399243733 -0.09080594626718791 
0.07946298201445418 1.381082473305303 0.03190116982675129 
0.01904699748657017 0.6731819948748553 -0.02190418744632574 
0.09901456954280326 1.051899077516711 -0.1996699887974738 
-0.102968372911382 1.290311533843557 -0.124127184600914 
0.1792309120166636 1.239997573190487 -0.1448064053858495 
-0.01953719106814521 0.3645753024788805 -0.04897913440083944 
0.08299719687007159 0.2000260746777885 0.01951808754099627 
-0.06883964413696089 1.173013260277299 -0.2123839582560408 
0.1053620295093535 0.1852801925890412 -0.1241971352809916 
0.1196726966552488 0.818795839742565 -0.1650106460132453 
0.05206735371457927 0.3757227160483501 -0.1659785241365657 
-0.09838285065488628 1.273386331759491 -0.1543166504084758 
0.05822070833535367 0.03876592451912687 0.07150170700181625 
0.1365245486001199 0.6187489850061576 0.03359850670644907 
-0.07334755282829913 0.1024200241774142 -0.02270781930040859 
0.08924408799885922 1.069524591564147 -0.2023968762512267 
0.03560420543726532 0.6871192149078756 -0.1166208243134702 
-0.03228310894800854 1.124801683350186 -0.1855983148028148 
-0.1256598574353896 0.06961650134871791 0.0323889968406917 
0.1019151561956206 1.320116705010943 -0.03674878314590947 
-0.0974361447401097 0.9786160765613058 -0.03274543411862856 
0.1465450570053186 0.7993842135612251 0.02160185663333492 
-0.0615716705992875 0.6768897865615868 -0.1477209784554692 
0.09450795576426145 1.31712158159212 -0.01849808999969615 
0.1042431577784989 1.238803884940325 -0.006039881316007858 
0.07101320975916543 0.9148913980942219 0.04993185019336145 
-0.02301745741350055 0.880875901409201 0.04274032011293866 
0.06567503586322138 1.191007748250178 0.04763634179040127 
0.1012029373101111 0.9010633775830924 0.03235658724808181 
-0.06845286480594737 1.15011262755574 -0.2014190889528855 
0.06187914010816616 0.3399719615361661 0.02912533716672188 
-0.1098833496916829 0.006368665774410486 0.09563953902675114 
0.05539282275354532 1.345224540538906 -0.1467148197460358 
0.148415220706387 0.84899615032222 -0.08527346702749374 
0.006770772031115828 1.10127356602621 0.07260219285743615 
0.1497214886896241 0.8577250487902925 -0.08055078569424587 
0.1007728010359576 0.0501188481827269 -0.03567669002835584 
0.03134869234885324 1.523104849034104 -0.1087210225521944 
-0.02201725677800365 0.2134046882827293 0.04578082601763934 
-0.04849379343336066 1.12320246458001 0.0611316651359394 
0.09244234406765045 0.1613988283588908 0.03951910928098287 
-0.009727200086340912 0.6192782924637686 -0.1027990841255671 
-0.002009601792468493 1.002740591881039 -0.1631938896165553 
0.009194623542853449 0.136555035432187 -0.115538266146806 
0.1357303267187031 0.9264782236417749 0.02167824060693126 
-0.05773182305943206 1.277329349186631 -0.1890017286971167 
-0.05085295533529764 1.195599913311212 -0.2109608141660771 
0.06369197056886736 1.078303097017257 -0.1988712474925655 
0.09119546977667418 1.453523290785341 -0.0156852529977664 
0.1645286976321179 1.058101797787153 -0.001515312241554165 
0.1129450242231589 0.6528216709702087 0.07035422896663607 
0.20800623670519 1.182458451611395 -0.07779385013061922 
0.07118863404190164 0.5790182488266038 -0.1508596374297506 
0.01499879054575558 0.4882306377350993 -0.0992174943495321 
-0.0334234902889623 1.18622277909906 -0.2130458414414201 
-0.07801695620277323 1.276359227852301 -0.05676676041528339 
0.02299831367500691 0.8251592376641628 0.07141118720379577 
0.08378057441419037 0.8874454768477325 0.04824226695568971 
0.05971728465451996 0.4962079976159273 0.0422544196320758 
-0.1234341513119366 0.2218296943288785 0.1438397937856302 
-0.0484446318271007 1.094923724427599 0.06049609938086891 
0.06140683885429547 0.6594026214497571 -0.1472473508675212 
0.10487612444318 0.241631432551692 0.02818437209909842 
-0.02267593367862261 0.4488270186669188 -0.04225016662092585 
-0.08627400413171281 1.079775117780718 0.008506203401575136 
0.1708112757201522 1.234316157158365 -0.03348007712865714 
0.1171584100683945 1.25639468129542 -0.1589888327336716 
0.03177575402145458 1.384667757590585 -0.1566768903871963 
0.01585882873626053 0.7431350457492027 -0.005048849934198512 
0.100315295229806 0.2492166517659693 0.04291623318275187 
-0.1426523859875348 1.147255958069504 -0.01863359996755234 
-0.06396184109356862 0.5810860215475467 -0.1295933916005769 
-0.1265329415184173 0.3683359731299493 0.03290690908343009 
-0.08281576011497244 1.327166374751991 0.07290579636550394 
-0.1031428117112477 0.2633562167372447 0.1573148032247531 
0.03698082276947066 1.23477851526689 0.003730516741828352 
0.1277527180352067 0.4322923328552691 -0.1044934762138819 
-0.09420927028371735 0.3951144785663055 -0.051587535619131 
-0.1089536722671213 1.184208303103954 0.05453691307761968 
0.1948940579399679 0.8645365657650881 -0.002346081376965846 
0.0381669626040613 0.3042077851822729 -0.02919792626406242 
-0.04028485311483251 0.4853189805618728 0.09576995160070186 
-0.05815984562035186 0.3743127611800028 0.09990982417334146 
0.01633862047258598 0.2158150753883113 -0.0682740914064458 
-0.04553899557985926 0.6926000782986239 0.07136902193764137 
-0.01470403409986111 1.098668826298845 -0.2013927167558703 
-0.08291986256785747 0.4712288714390865 0.1303182192172013 
0.01722966059696567 0.4295242407811806 -0.05167758369941336 
-0.008862478270485585 1.172943989558257 0.05470843421834619 
0.05225456541296592 0.3604988424076183 -0.008706819564802327 
0.128008525957244 0.8803916255823914 -0.1833980340532445 
-0.08598531374983624 1.141085080062057 -0.06731541607679593 
0.1656819635974114 0.9265903834344402 -0.007281481015039714 
-0.03967202678873926 1.048837863011563 0.0488952664609556 
-0.08767694467504804 0.2041376520669259 0.1614613289289115 
0.1638574006347533 1.193280674052651 -0.02930531860805499 
-0.04821788103809201 1.112773518619443 0.06134836305698781 
-0.08919379859478907 0.9521515289632567 0.0234642572637042 
0.05987820218762072 0.3479359855948642 -0.1713103000234736 
0.1401139242210647 0.7855904555077575 0.03034879382720305 
-0.1037742427056654 0.6579952421341043 -0.0853745721322178 
-0.1487066520179301 1.176536507878534 -0.05064033588814403 
-0.1149222902361285 0.2422018058394128 0.1523874605860497 
-0.03363911036475082 0.4035767201727 0.0688914474960489 
-0.08313607741820728 0.333545816630221 0.1333471169850217 
0.008685666776781708 0.6556496696907658 -0.001886342325725705 
-0.03128619360796167 1.250783469519975 -0.01781845850816586 
0.00437770450682321 0.6281442024598606 -0.07719081611709881 
0.05246515990169195 0.6326750760969246 0.05326356656687783 
-0.03199433751084867 0.7610276645306876 -0.1844862707280652 
-0.006887623264981425 1.383094553092915 0.006357353489577804 
0.04344213824093422 1.20246534672542 0.03041949442935179 
0.05031269640348498 1.129263843025617 -0.1964641226038898 
0.0451024876908991 1.008264153597823 -0.1659703606004195 
-0.05052475873691892 1.186326082959336 -0.1926563649745485 
-0.08919802103816218 0.4019189000998278 -0.06487693008272677 
0.1042006052391084 1.335196320237505 -0.0914306226534168 
-0.110628192479978 0.7379217825061846 -0.07321032131654845 
0.1296410847128568 0.8300917579850191 0.06185556456824377 
0.005402000963383211 1.447842726596732 0.0359187798974572 
0.074116735879245 1.316110704636628 0.006625571935508835 
0.1627159064039091 1.107764823108327 -0.1584905400641948 
0.07067461953354805 0.1293900328434732 -0.1657060820328874 
0.09236780628951337 1.319308568517165 -0.1378369309098552 
-0.1337722010566919 1.160780663111529 0.08224537712123958 
0.06422739631088747 0.9988394182580458 -0.221302885825518 
0.1052967677370877 0.9808182832065324 -0.1914606888943785 
-0.1083404050219383 1.284179899273568 0.07427501102257968 
0.1173989639845892 0.1158792578148202 -0.05039235177591542 
0.03475700602208859 1.003539865352967 -0.1930979683925099 
0.0805344187013991 0.3860785750031572 -0.1640310924355945 
-0.09985918865780063 0.07457337901059313 -0.006536510065618386 
-0.06396185798098161 1.05191984760109 -0.144683556934869 
-0.008647327038166128 0.6070614509609167 0.03634493951315881 
-0.050619970792828 0.2972621351825094 -0.06472579149383012 
0.005414729115335115 0.6419600361780744 0.01019146675554019 
-0.07133306437752475 0.8587300556896351 -0.1642168739952756 
-0.05978925105405505 1.125387905004978 0.05000686859782197 
-0.0356064563360371 1.366882227056771 0.02878202898751374 
-0.01934270783631158 0.9469970276101711 -0.1652113321437933 
0.1181994405518019 0.07339277953868109 -0.08690906533105427 
0.08948720519265344 0.8755781602455621 -0.2001352898544152 
0.05132231981917391 1.160388927580395 0.07408982415943269 
0.1648286707372242 0.9572887207459431 -0.1563732121441731 
0.1048831142303409 0.3267861698394083 -0.1399245066280139 
0.06646549193552122 1.121717526799213 0.09123692280196863 
0.08200276687308103 0.9283074901891855 0.1291629026503408 
0.1288609996307878 0.8212811265295973 0.06631166367820114 
0.03164877597790898 0.4378965608561149 -0.1424984266242325 
0.1240966476924027 1.070923506769959 -0.1723004831538371 
-0.06468574805811469 1.304225826162069 -0.01405976513653117 
0.08562387561600418 1.39798646725111 -0.09492935986874912 
0.09316347751168456 1.307043625901497 -0.02507042474400451 
0.1222842389503283 0.3159645011627858 -0.1062659113251174 
-0.06867455724928345 1.348337247570593 0.05132265140354175 
-0.02268890647232726 1.281969188518275 -0.1850124895233848 
0.07168683002696685 0.7992122009600101 -0.1853986799829921 
-0.04086415749612455 1.12906345049795 -0.207232894474171 
0.004307637307159409 0.118826808862682 -0.1018295526348549 
-0.04091067606317567 1.030666701487716 -0.157959516041053 
0.05754000764248669 0.868276961780804 -0.2084836967965749 
0.04263691393588913 0.003012372299450629 -0.09135175956218189 
-0.04238499800975672 1.294759255977105 0.06115893844224495 
0.1165393512489093 1.313276498373906 -0.09094244934345158 
0.03146043243983225 0.9350827840716363 -0.1898507931127284 
-0.1025667637630362 0.5629858563420211 -0.06846529740570016 
-0.1260711343000865 0.2152764837165952 0.02263956463937848 
0.1356075226016043 0.6603986904210114 -0.08966626428103691 
0.08962567381666392 0.627788763021595 0.07439642973802414 
-0.1216383836053827 0.577298768143556 0.01026647491020987 
-0.04172652377316664 1.327638356371405 -0.1235305159586114 
-0.02632399660238255 0.6267081335079624 0.0658179204340813 
0.08614269495912058 1.135947022201821 -0.2026777845808188 
-0.1031950436980049 0.217487861346462 0.1644418600732343 
-0.09855963772506562 0.6158502007309459 -0.08324224451927154 
0.1606129167375321 0.9308188377619497 -0.1688535552742747 
-0.02074935202025332 1.359498347273827 -0.09554481593627998 
0.02885843971273806 1.340141652508979 -0.1598231124776289 
-0.1048246807321129 1.003020142091274 0.1150740226665688 
0.09304373570229557 0.5804979042764632 0.06758636180871982 
-0.1787310618655842 1.27822863946557 0.02330819794924587 
-0.1108331152346008 0.4191443800432484 0.1240691378442223 
0.1319761752337767 0.4223924101578412 -0.09355626459853426 
0.0676629364165047 1.141338969805778 -0.2019256875850666 
0.1410655984514768 0.7341642660914226 0.03758546584561803 
-0.04894532499368498 0.8568398170672578 0.03323397916652745 
0.2355604651687815 1.046301810136119 -0.07332192224447139 
-0.1257313574593688 0.4300440649061785 0.01608044356858737 
0.01119282082286339 0.751775188920038 0.01220807278349251 
-0.04003220547233905 0.4442714472081494 0.09716791439277392 
0.1676601954689234 1.135671366080663 -0.02159023570507744 
-0.073218084432708 0.3699556366423632 0.1236764783542503 
-0.01413658118033261 1.368729234856232 -0.142471226658476 
0.06467678955262249 1.036164555100839 -0.2127178969255604 
-0.1037936123767567 0.8466798719115227 -0.0870606563693016 
-0.1086140538465501 0.8357687086728843 -0.02810264212676147 
0.05389358977077897 0.9959957606688359 -0.164165081903568 
-0.01761091544829548 0.4144487648203986 -0.009590991336497354 
0.04667787363831712 0.866959478989026 -0.2091974533892643 
-0.06518829069884206 0.8441049220642958 0.0149631983047258 
-0.111362919512723 0.2085359385263409 0.1576401521321527 
-0.1207311195594478 0.4583733254494934 0.06136502433366688 
0.146369473455753 0.9919091044478923 0.07278892876368706 
-0.120701506102078 1.263146936826865 -0.03286160136535851 
0.0752446234031577 0.04316227987594586 -0.009049144763126852 
-0.02506445925046369 1.272830188203923 -0.1916748470334326 
-0.01606510690756973 0.2252936700209195 0.02512409719431557 
0.1148296284409894 0.1398841583287398 -0.03550377397446457 
0.1818951066469119 1.242463398420096 -0.1091267755405704 
0.2012879169863547 0.8303156215509363 -0.02056174021339046 
0.04143333096045395 0.7032962632974555 0.04218749663380568 
0.03623271552486677 0.04702653884124518 0.05217121582745947 
0.1091616763910741 0.06870512094891518 -0.1310689587658465 
0.03232735851664199 0.003005038134202871 -0.09362464826695663 
0.1278054127563603 0.3385965293063423 -0.09448949527576106 
0.06322100778512758 1.027866385184074 -0.2053803609824025 
0.06608874448514325 0.3357145040199625 -0.1723594748098616 
0.04965913334205804 1.277223192888226 -0.164842979565637 
-0.1267275310448782 0.04719238626663048 0.2283245190746755 
-0.1868491403619335 1.144445346554062 0.1047536643305404 
-0.09943197945820384 0.5892857820525648 -0.07255182362290565 
-0.03483120689074121 0.9052107075697913 0.03538502167417208 
-0.1109491603627313 1.293210726618817 0.06641315014707212 
-0.06894546730477058 0.4283619929433562 -0.08824408100332895 
0.0161314118826495 1.463999814880851 -0.1784410150488367 
-0.01726741529616252 0.5320810104422632 0.0577471376464268 
-0.1230396187182269 0.4003008973921334 0.02558853908374289 
-0.1149637546186818 0.7599878353694991 -0.04838534545166136 
0.1207926045797588 0.4324404603896654 -0.1217548281894096 
0.1011007075560396 0.7389735007590907 -0.1532792539871969 
0.2285812507817208 0.9017517769656526 -0.05908909914180983 
-0.02416031090235299 1.474025203450616 -0.07077579322557534 
0.05954855132526593 0.128401244919446 0.01676669130486183 
0.1094350271017171 0.1380528696368155 -0.02582869224962002 
-0.0727864744666003 0.323810621718796 -0.06529444579555689 
0.04671206410924804 0.003363224224065178 -0.06550101856293579 
0.1391539150058137 1.019517391894032 0.06201112058143873 
-0.03627224520734562 0.7486254118850066 -0.1794824371597346 
0.04704760495147682 1.335697486392834 0.02200035599774842 
-0.1604185139989909 1.183904061195994 0.1131276818004751 
0.009732711775081445 0.1392886018715163 -0.1275528568845907 
0.06513570090878165 1.511079957012363 0.006198988997653644 
-0.03919696965888598 1.428925527992664 -0.007827818323555377 
0.09372844901150949 1.214338461490799 0.02646928649291775 
-0.01161517440086535 1.521459026795522 -0.04843538109967743 
0.02507756078853478 0.6813522707700552 0.009809890884957217 
-0.05830817288501627 0.7228236978928049 -0.1568937319267882 
0.07935622219077494 0.2800416422966471 0.04073762095646184 
-0.08590748690427177 0.9288494834309065 -0.05304574568675333 
0.08812241725834294 0.281329797835283 -0.156168159293633 
-0.09278196186879087 0.1587837528089294 0.1758599308170021 
0.1663798019420961 1.129316184705425 0.02324980930301568 
0.1102980466371511 0.2382151541251047 0.008110034692369646 
-0.06899190300824337 0.8271656111625212 -0.1624973963723228 
-0.01755071284978068 1.359941452443137 -0.02987587318784884 
-0.08469803299445261 1.138431624622725 -0.1155745854815446 
0.01761676463577683 0.2595409832258965 -0.08520403655437811 
-0.03245194274515664 1.49299233777398 -0.03068620798861843 
-0.01648145794109731 1.253047733927982 -0.002325787146996911 
0.1016030047580832 1.017805969716196 -0.1962712120055357 
-0.1040332630621282 1.04115930336519 -0.05431928018354203 
-0.0602145832627598 0.5149587431627279 -0.1117418039454071 
0.1164079433351383 0.08082042649698677 -0.03968687029859772 
-0.01975958086536668 0.3349154815824764 -0.0393362622440921 
-0.1259553709675245 0.1749011214463243 0.1407414473797491 
0.06325514423241568 1.162301149471817 0.07850307906000702 
0.07893276630868264 0.6257931837969338 -0.1441416658732795 
-0.1841107259850308 1.2354728963526 -0.03294169377560537 
0.2018835184465154 0.9895701763530732 -0.01987930497896975 
0.1190558475829175 0.399405334269938 0.006117424887243646 
0.02184152835782838 1.538269962582739 -0.01177160183389154 
0.1301662957804111 0.3883549817783314 -0.06481912880816122 
0.08807694031494179 1.192640675842003 -0.1918495191943138 
0.1060299692491687 0.2224899861024603 0.03467153042034593 
0.08381808519105649 0.9342322835470143 0.07549206838459271 
0.1325239017722479 0.5312820460870967 0.01197249642711897 
0.08305989282766212 1.149905269011534 -0.2036994910248245 
0.1025490008918265 0.2834532481452703 0.01871532494888822 
0.1682962441822414 1.06311477506151 -0.1701289942042087 
0.03949935180620969 1.140051062782418 -0.1881228120771392 
-0.0202338944466368 0.6202610248193997 -0.1292689935684311 
0.08190064010398261 1.338050826908251 -0.03504055374175621 
0.1401715016733439 1.044076722926328 -0.181784378061213 
-0.03970660127419842 1.111180086194261 0.06673181992298573 
0.125693410570738 0.3192413414944983 -0.09584012282483714 
-0.08242183769413977 0.9600954022016263 -0.1048299035105088 
0.1291038660935019 0.2977954164647415 -0.07789007175880125 
-0.08891948238464868 0.7460908006929856 0.062758996546824 
-0.0190938681331707 0.4840302134501522 -0.01448784117237301 
0.06093048825521472 1.388247660266273 0.05219390282526336 
0.2251559336920801 0.978997135659697 -0.04669316518629798 
-0.06553110282519528 1.261714795799245 0.06903471249330628 
-0.02766114887245207 1.405219365696983 0.007078753509616143 
-0.0447438306236651 1.308181325412589 -0.101283312147906 
0.1086273088416213 0.1672466525083098 -0.1218844011996761 
-0.07627029140011443 1.195175897932592 -0.01615506146432948 
0.2056306926485199 0.9075987549427339 -0.002541658470954405 
-0.1286631127660267 1.252467221525678 0.09928385034203142 
0.1247582084010815 0.3415168922128816 -0.1036678073029496 
-0.08393079096735868 0.5555069734353422 -0.1012178930107082 
0.1078509633574834 1.463994797027415 -0.05879430507562117 
0.02252376960459373 0.2352188294848498 -0.1232621797597961 
0.06246034008113372 1.352595947240565 -0.1440357302827626 
-0.08817648569055053 1.114087873670632 -0.0676522434563572 
0.1154237516386444 0.07555613409891013 -0.1230505414629063 
0.09849151561588781 0.3606135761555271 0.04310961240332961 
-0.05076818030307975 0.4110063778535605 0.1010812877810238 
-0.1204561498422115 0.2360180789171415 0.005493893042229958 
-0.04899257142129622 0.1393224494548585 -0.02617105187779124 
-0.07916315521476126 0.4274534016190724 -0.08273361473010975 
0.1628811731809449 0.8552885865971036 -0.02972537154029976 
-0.0599371692232577 1.169208618747464 -0.2258466714829254 
0.01700870565155754 0.2556221558042115 -0.0724112795580391 
0.1191980868999566 0.6105929818819922 -0.1270793138847373 
-0.07595515258530715 0.3904527856297235 0.131923736195595 
0.07047010599123196 1.153382105278393 -0.2070864512249289 
0.02985656353166966 0.3788658863164541 -0.03951734711637453 
-0.1240725735403443 1.034036192590873 0.1020546891343164 
-0.08270475541656178 0.4533988889485075 -0.07142749770200305 
-0.06083816008260781 0.7415369797180713 -0.1595934466233613 
-0.1162984183052176 0.5150944811466031 -0.02877312460662166 
-0.1362004591759207 1.202676191014122 0.1194832453088904 
0.05001790480213847 0.4312678596449702 0.03466823175493058 
-0.03171778281659582 0.4497117293316864 0.07986875819219227 
0.1403403084559795 0.9329794831776417 -0.1243796217972629 
0.08694178144903726 1.282045086628894 -0.1681326909317662 
-0.03481103814640961 1.437571383216782 0.003439754074084177 
0.1932364005874668 1.212277137749317 -0.0582059292300221 
0.1150304766555943 0.76534037321019 0.07822838760769821 
-0.03442319660326217 1.33033801155439 -0.003883124686145147 
-0.02205886039630401 1.182881765232644 0.04609739523909985 
0.1025994381478678 1.147424172430802 -0.178293038534571 
0.04655478811416316 0.3660200929650743 -0.1636772122910498 
0.2033360736407365 0.887203051980255 -0.01161305698888223 
-0.1452263928724505 0.06223366431374062 0.14853226476583 
0.02857661660210196 1.066417792364259 -0.1677300016466845 
0.1060655510014312 0.4668937414334402 0.06216590602072933 
0.08264401780983288 1.002081280485926 0.02081673124782447 
0.05765573465451511 0.004924540339893219 0.04363405704854939 
0.0418894053465297 0.5326758208540495 0.005781739980451279 
-0.08941410208003808 1.18302520421186 -0.1439295766873269 
0.132954225813542 0.9598841456916075 -0.1258167785626213 
0.1179770782274514 1.139820800889767 0.05752614589543779 
0.208571862417765 0.8864976963611543 -0.08159395382235723 
0.03077957430110614 0.4720186729885096 -0.007298179784413709 
0.1097281073038318 1.221541598050643 -0.1678383297626596 
0.08005236670383055 1.060900814441853 0.06258555544278666 
-0.07736874835471838 0.9243569355410599 -0.02346704193875088 
0.1365038531698154 0.6702902511661692 -0.07914380363143968 
0.07438875762739953 1.35127280400826 0.01626198432731214 
0.1220706901307092 1.284315380269172 -0.134298010859922 
0.1207496141445848 0.7089907942075709 -0.1194594471734541 
-0.1391092866649277 1.158178664340674 -0.04201491529832901 
0.08406020707138559 1.003713121255741 -0.2196776448704529 
0.1251219557634003 0.4375762389127992 -0.006207904541859645 
-0.1379911292924185 0.01826183723460504 0.2470299582369116 
0.218859547515698 0.8568451027659254 -0.02317848546700622 
0.08191705053500174 0.9269085179234882 -0.1954793226712784 
0.1092480031834294 0.5323053301636634 0.05937241369684178 
0.1713149486859047 0.8523523118909596 -0.06402242567662711 
-0.1364780643609272 0.007801813489371303 0.2145845867612455 
-0.1072370500775789 0.4363269197634659 0.1050059717478014 
0.01821511959568661 0.01898260826790876 -0.09654690276591793 
-0.03712525972874407 0.06865487745671647 0.1116545362826045 
-0.0862291318978556 0.3263521613548738 0.1404519227461778 
-0.176858932654032 1.20277254171116 0.1126384306535563 
-0.1255813711347386 0.2989631200752605 0.07545785655671967 
-0.07772165565424138 0.7937872744941634 -0.150005658872156 
-0.1049297288234054 1.109255722278102 0.005841539302316288 
-0.0708998500012968 1.288817724749694 -0.009967422680640282 
0.03617847622604733 1.288835443945682 -0.004939938353146753 
0.02738356037163905 0.8580965942323373 0.06910814182986338 
0.07793236513582483 0.9927636412667546 0.1225508269856073 
-0.1153158347829132 0.7720059202354117 -0.04597067602214518 
0.03936368958677489 1.3027358585798 -0.1579039121028297 
-0.1053594919763081 0.523110549369088 -0.06886649210719886 
-0.1127649754990293 1.063329506485958 0.1113036648457286 
0.1176903429878287 0.9335680155572414 0.004416640283209556 
0.2276671337232211 0.9228466415861991 -0.1091271739261286 
0.06195776052931156 0.03955503329179111 -0.1334574601142303 
0.08564842659029376 0.6395776804739471 0.07779356098515035 
0.2091939399942913 1.108341066347353 -0.05362492034931966 
-0.1592668996530823 1.270588533420637 0.04911507645578968 
-0.02812761305483125 0.5391597382308309 -0.09033437307822387 
-0.1159545732306384 0.385441579384701 0.1262116688380932 
-0.07921416211057947 0.3309180498124425 0.1244693059857896 
-0.1292509294746344 0.3279734684671219 0.0587556705180663 
0.2119056677947387 1.115422870459264 -0.1157424630350362 
0.03214603142689082 0.5073140677470436 -0.03912551659626877 
0.09893759019051285 1.330268713106467 -0.1168637431930276 
-0.08138028301974003 0.3921157283839309 -0.06819013382255207 
-0.12389755648966 1.048863587612994 0.08624517718517441 
-0.09233938677808914 1.061895321798314 -0.07690671078167419 
-0.09297939475267367 0.2466391884009202 0.1633512964841899 
-0.1714511010132632 1.13043403621226 0.04800088346866109 
-0.1320433087544668 0.2429180834538052 0.05063071926396773 
-0.07365738441897014 0.9533049410504471 -0.1369292236664242 
-0.08313013735050756 0.2953914254959542 0.134408380772126 
0.002219542841802113 1.499687707794112 0.01526361032457837 
0.1001823530042809 0.8371955022232965 0.06793142003537517 
-0.1284794194612449 0.2118052357478647 0.1073272504174771 
0.008730184613043359 0.1691175003980924 -0.03818635489447868 
0.1312180876676445 0.3977488841057489 -0.03232370024523389 
0.1954779078198648 1.156959798166877 -0.04572615753577611 
0.09459966988766738 1.242903799352225 -0.00241728509327196 
-0.1079521607398725 0.01855661466677901 0.07488306228878638 
-0.03193542831284643 0.182777626600242 0.09699366550081084 
0.03535136185712089 1.083425809463943 -0.1768320741804787 
-0.1166711335058637 1.151138309234585 0.06744759301366854 
0.02115140109133815 0.20550021939436 -0.03098036932909624 
0.1480540438398267 0.8520620087674911 -0.1080168154487358 
0.1831765395503795 0.8385724724071701 0.02540769490219309 
-0.04102435975562892 1.137011919996531 -0.1813785650012224 
0.1163648686162152 0.1544065996084611 -0.06696806272747256 
0.1258123999305368 1.157087490342549 0.04335056647831749 
-0.0726204689232241 1.35705758466495 -0.0032487247205703 
-0.1043467975821509 1.085347934857461 -0.05525383680627416 
-0.06724527569369385 0.9644346625796387 -0.1443530469488513 
0.03560236480343638 0.9927849780106559 -0.1911901545847486 
-0.0251628920530432 1.110797738355228 -0.175049237236119 
0.07653060733570705 0.7598091799513847 0.08198008738871627 
-0.1499953094486402 0.08601649934881463 0.1175565727515202 
-0.09488570151590058 0.9784654219593577 -0.0446345894013032 
0.1144688587045486 0.4708202723710226 -0.1189983987756672 
-0.05269706991275632 0.1594853799697257 0.1301172832793991 
-0.1070404419253715 0.8461515407283123 0.002396703094030528 
-0.1195808686686475 0.2653800381180331 -0.008349058602640687 
0.02722241693027388 0.07943673924490378 0.01842366433056437 
-0.07800394938866596 0.1378492316826249 -0.02473279302376093 
0.09437466545680742 0.2557666691808049 0.04755346887615201 
-0.06302586309102051 0.1660781690108146 0.1485086048229328 
0.07533509443765987 0.03730916280450837 -0.02650371297879576 
0.04296653226529908 1.5290696311201 -0.09403127710936707 
0.1742752218418864 1.176052376619015 -0.1627179360972404 
-0.0299963085090163 0.100709219875125 0.007915517516773066 
0.1262486692177818 0.7861265522187169 0.06804229751061011 
-0.01694071439681803 0.2493283723726911 0.03847133768757212 
-0.04260574211979063 1.417559474752681 -0.05354113875550162 
0.07925570599089775 0.9732506340925249 0.1113121595689852 
0.07687331222926061 0.1013485531532524 0.0287244507474179 
-0.02137787418745955 0.354332218133223 -0.04933559909718166 
-0.03650533599290477 1.322223443461807 -0.1513670066867807 
-0.1245635066062328 0.4109789754233983 0.07403802094360772 
-0.0188229076826659 1.445480625436963 -0.02495821274903505 
-0.09947736619456114 0.04774042060570592 0.03211818942690302 
0.1716934975565458 1.259775398137515 -0.1059655352081983 
0.1094556871846591 1.432397311963439 -0.09328022153113648 
0.112089714001853 0.5629900618081929 -0.1309994168670823 
0.1221156434249151 0.407667341666547 -0.1068624135933901 
0.04405087457385577 0.5344187047802855 -0.1397935864446234 
