ply
format ascii 1.0
comment VCGLIB generated
element vertex 622
property double x
property double y
property double z
property uchar red
property uchar green
property uchar blue
property uchar alpha
element face 0
property list uchar int vertex_indices
end_header
-0.04841860078375486 0.6850440179444919 0.08016955110028588 255 255 255 255 
0.03668158296902595 0.4431871144069273 -0.01248919122249207 255 255 255 255 
0.009659075411339478 0.4975036721129077 -0.03714673646928206 255 255 255 255 
-0.1993761837546637 0.1055574088968494 0.1159999152308368 255 255 255 255 
-0.07414841178698407 0.4414630131978868 0.07289707187908998 255 255 255 255 
-0.1440087967284163 -0.3025130401842728 -0.09176917090412777 255 255 255 255 
-0.2572064897671957 0.4235499514279699 0.2405081961359126 255 255 255 255 
0.08156597637832719 0.3961631898349182 -0.1574236012803497 255 255 255 255 
-0.1471775333203873 -0.3118104039036382 -0.09147623842125512 255 255 255 255 
0.0516447933026646 0.503114412170097 -0.1442389828334152 255 255 255 255 
-0.004275994098217018 0.3983252157613529 0.07516056340476492 255 255 255 255 
-0.2998867332616441 -0.6118984960929719 0.05143968730101658 255 255 255 255 
-0.0202302679971978 0.5271306284730447 -0.0230262021083285 255 255 255 255 
-0.01224660802790144 0.699679221360759 0.002537834903722507 255 255 255 255 
-0.1798926957222874 -0.6255584637574914 0.06359903946426765 255 255 255 255 
-0.1931140112706316 0.05191787808439174 -0.1078655139097564 255 255 255 255 
0.004945193225806416 0.270507425337251 0.05402828724662469 255 255 255 255 
-0.2396471232246915 0.2239311701521269 0.08370332439812037 255 255 255 255 
-0.02387491111383929 0.1771129361866238 -0.09754165047938917 255 255 255 255 
-0.02451850922846695 0.2042870624306291 -0.09991071570006252 255 255 255 255 
0.04070677048020489 0.2451576096407753 -0.03296590161339796 255 255 255 255 
-0.06661048136083021 0.1557795645148941 -0.1247459009279695 255 255 255 255 
-0.3467646802242647 0.4319592401571433 0.1698808858678297 255 255 255 255 
-0.1907063456972736 -0.5188035258185701 0.02160988621289386 255 255 255 255 
-0.175621578072251 -0.06901651103425435 -0.02694635547807555 255 255 255 255 
-0.08595012088418728 0.1917194011127535 0.1037390386620054 255 255 255 255 
-0.2587010916375158 -0.6765198123543374 0.1447970628631111 255 255 255 255 
-0.1902997925074505 -0.5946244249156025 -0.1016984753624763 255 255 255 255 
-0.202708693578768 -0.4164256635069056 0.1258759312304081 255 255 255 255 
-0.2974381834241393 0.3913077185839947 0.2164309435730304 255 255 255 255 
-0.04727741424755544 -0.1223760264840919 0.05919127768477453 255 255 255 255 
0.05671055998461903 0.2561582623966154 0.03079204159295597 255 255 255 255 
-0.2027357416479928 -0.6418112328327401 0.09435166966975321 255 255 255 255 
-0.2403012122103882 0.2388017794725479 0.1517040280920596 255 255 255 255 
-0.112299398160509 0.4155626513466328 -0.1512681600418794 255 255 255 255 
-0.2753623421506211 -0.6596677926781893 0.002211897791500456 255 255 255 255 
-0.2767131229372351 -0.2532577105088089 0.1158898782401898 255 255 255 255 
-0.2069788185262227 -0.1863757375036789 0.1527950396415953 255 255 255 255 
-0.1497969090921306 -0.452721265871942 -0.1395981090982701 255 255 255 255 
-0.1848491347447389 -0.0158462503374975 -0.0640223638826853 255 255 255 255 
-0.02753614295841937 0.6668590244074537 0.06093065414367856 255 255 255 255 
-0.1928490492672517 -0.5430941911054495 0.1206899127316162 255 255 255 255 
-0.2394910465584121 0.4466431935842633 0.2061555276190314 255 255 255 255 
-0.2489890926777297 0.004070914065319325 -0.055523881242527 255 255 255 255 
-0.1303913220304667 -0.09696619559165566 -0.07440803991134663 255 255 255 255 
-0.2112306548313967 -0.162142950434551 -0.01348259508728746 255 255 255 255 
-0.2040183594218672 -0.5023875875089839 0.131704740623395 255 255 255 255 
-0.2760499104146977 -0.4912705173327295 0.1192024069212926 255 255 255 255 
-0.1285897556243555 0.00965134236455318 0.04387556176130512 255 255 255 255 
-0.2679710522868755 -0.4992317245756769 0.1385233998377495 255 255 255 255 
-0.1213781555653037 0.08002503008310742 -0.1398808819993217 255 255 255 255 
-0.1372235212707252 0.6240175242131556 0.04809210864412716 255 255 255 255 
-0.2416540016189836 -0.03561974345066116 0.1314112570973908 255 255 255 255 
-0.2037435462242042 0.5460103172184086 0.1193070309800307 255 255 255 255 
-0.1953238983924332 -0.4438445593431877 0.01479361214727357 255 255 255 255 
-0.2071541338454621 -0.1170513618134972 0.1466906166835064 255 255 255 255 
-0.270587659972408 -0.7549031829617456 0.1187773097059104 255 255 255 255 
0.01474058731520108 0.3039987949486011 -0.1968327503295039 255 255 255 255 
-0.09656542598140593 0.05698832942521685 0.09552677503429924 255 255 255 255 
-0.00594750757086064 -0.1010734211220152 0.02465643303584245 255 255 255 255 
-0.3272853275812413 0.4111999156828769 0.1397825297334974 255 255 255 255 
0.008590236588406377 0.4451543142506927 0.02923614785669457 255 255 255 255 
-0.2337523610162629 -0.6284629317558805 -0.0223440055077802 255 255 255 255 
-0.09767306557580423 0.4727805750810375 -0.1595398433682621 255 255 255 255 
-0.2237148213733561 0.2690240053874946 0.1628476793601947 255 255 255 255 
-0.1528715565317163 -0.1793375483973869 0.07692435851219913 255 255 255 255 
-0.203870101841944 0.555909404121278 -0.09704155600003372 255 255 255 255 
-0.1566101933967877 -0.6501458232562677 -0.02752167393999319 255 255 255 255 
-0.2665704628224334 -0.2923181081964938 0.02947257614886359 255 255 255 255 
-0.04663103281554822 -0.1990206098653501 -0.08990845986801244 255 255 255 255 
-0.1500095057471142 0.5752233634682902 0.1698717440074029 255 255 255 255 
-0.1056935023101977 -0.08658018197480012 -0.09254344362902416 255 255 255 255 
-0.06034194947498631 0.3442792898530762 -0.1681284983773176 255 255 255 255 
-0.263677425938857 0.4372900202708618 -0.06121418276366827 255 255 255 255 
-0.1108204210497944 -0.1753417504036287 0.02628831171975586 255 255 255 255 
-0.2989510887429533 0.4196363036444524 0.05279464023002658 255 255 255 255 
-0.1918604931823401 -0.6243368776148315 0.1327754359470349 255 255 255 255 
-0.3182622092402214 -0.7302380250484801 0.1610134742681024 255 255 255 255 
-0.003829578884638624 0.2297750391092275 0.0669485837658655 255 255 255 255 
-0.2434322448500443 0.3296053918488997 0.1434122810282462 255 255 255 255 
-0.1964445190961273 -0.09540239500932995 0.1407744207593542 255 255 255 255 
0.06113862099591375 0.3658137367382489 -0.2106449828134467 255 255 255 255 
-0.0360355148483039 -0.1477220489403345 0.04814956547904045 255 255 255 255 
0.02662943636481986 0.06412326543460853 0.01900215006866616 255 255 255 255 
-0.25986137135028 0.4590431412679694 0.1554870905211224 255 255 255 255 
-0.109271277389773 -0.0665201192447208 -0.08921638302556859 255 255 255 255 
-0.2557809706337557 0.4291075017579086 0.1684951659664587 255 255 255 255 
-0.143263699416042 0.01454989387383836 0.07636716991530927 255 255 255 255 
-0.03012216081013562 -0.3144085729739227 -0.04837361224614574 255 255 255 255 
-0.003617597645177446 0.2165770298005132 0.07117998519415533 255 255 255 255 
-0.1895026876584684 -0.07758860085762923 0.1347125164032082 255 255 255 255 
-0.2713613396363954 -0.2151020472871846 0.0333082407639253 255 255 255 255 
-0.0205379206042975 0.289208319681867 0.1104172153021452 255 255 255 255 
-0.2087433739745989 -0.3903822443905643 0.009486034462530508 255 255 255 255 
-0.1022588333438213 -0.447604597838582 -0.01101489172247299 255 255 255 255 
-0.2135713467432923 -0.4075188646069475 0.1540446892577768 255 255 255 255 
-0.04718546620092155 -0.4188329116707212 -0.1013283065949222 255 255 255 255 
-0.2639735047861963 0.3103467197316248 0.1019020161606148 255 255 255 255 
0.0467702344105933 0.2198324065122111 -0.08502959442195047 255 255 255 255 
0.09833772607549693 0.1522122123649496 -0.05559996574239956 255 255 255 255 
-0.197807436681163 -0.6633766041490579 -0.1326999850059445 255 255 255 255 
-0.2544015048834321 0.3387922333399023 -0.0302454682604433 255 255 255 255 
-0.2093100058719953 -0.6229107914563438 0.1519020092935582 255 255 255 255 
-0.2678684305074823 0.546913658410588 -0.03564200178954244 255 255 255 255 
-0.1858622209296685 -0.5760778839805376 0.03588214452174837 255 255 255 255 
-0.01038451579086847 0.6875045294345177 0.03305200094669317 255 255 255 255 
-0.1587228439407455 0.1824304182329558 -0.1057672937711238 255 255 255 255 
-0.1692643791806939 0.6948859054326738 0.07464385230154137 255 255 255 255 
-0.2223993986127692 -0.7000327808397584 0.01739427370961355 255 255 255 255 
-0.1158690093473352 0.1848590582281167 -0.1220636376888549 255 255 255 255 
-0.1576560000116292 -0.1674258774838522 0.03941081695787384 255 255 255 255 
-0.09670481266636131 -0.0887697265871014 -0.09680885570433051 255 255 255 255 
-0.1559560107817839 0.07325735458619698 -0.1277787858151859 255 255 255 255 
-0.2456363798491127 -0.3879553228000301 0.001223305092155463 255 255 255 255 
0.04017033330825609 0.08146330301882682 -0.03991961742687919 255 255 255 255 
-0.286718240996646 -0.2936273208433384 0.1038195706091576 255 255 255 255 
-0.1826394400073734 -0.5958049615379288 0.1191552876235934 255 255 255 255 
-0.177434037005158 -0.1549945220300825 0.001394438707822904 255 255 255 255 
-0.1049075768105122 -0.1925966394029581 -0.1007575605068479 255 255 255 255 
-0.1361774017953273 -0.5096510802549462 -0.02197904682394942 255 255 255 255 
-0.1174085467601894 0.2639811407126995 -0.1262785787204882 255 255 255 255 
0.01923620161922582 0.1353118143883958 -0.05877848894145074 255 255 255 255 
-0.2450707238453224 0.4361178220479533 0.2350990022966895 255 255 255 255 
-0.1769312152212529 -0.3181987041498805 0.1080190887058277 255 255 255 255 
-0.1247489711463186 -0.6165125019946053 -0.009419183572727634 255 255 255 255 
-0.2134618131944091 0.2531189483699087 -0.05599433815265576 255 255 255 255 
-0.03055092361499835 0.05389372478638348 0.0803767409118645 255 255 255 255 
0.007163432175064401 0.2757522086316711 0.04636169296054978 255 255 255 255 
0.0639596484411981 0.4163440543704595 -0.1904469957517138 255 255 255 255 
-0.04902003435175548 -0.14405321219645 0.05416643925954109 255 255 255 255 
-0.1690403666612481 -0.231154595957531 0.1189762613935364 255 255 255 255 
-0.04613195557252911 -0.4256530909552719 -0.06182670214247275 255 255 255 255 
0.02724869828749273 0.06850985746012747 0.03693612201566479 255 255 255 255 
-0.01989964323644978 0.5004089689447865 -0.169345358812212 255 255 255 255 
-0.2411478421002793 0.4187374922136272 -0.08890347240824106 255 255 255 255 
-0.3157961809435801 -0.7013239758517887 0.1070963258652529 255 255 255 255 
-0.1721847293051702 -0.5069799727319541 0.06918202315457617 255 255 255 255 
-0.1664955889268174 -0.6482558311948571 -0.05704646518176587 255 255 255 255 
-0.2886455809152694 -0.3997261753501319 0.03435536315142879 255 255 255 255 
-0.1928781169976302 0.6157343238311964 -0.06006388609976093 255 255 255 255 
-0.1824375671497125 -0.6157077430474771 -0.06599983733001383 255 255 255 255 
-0.03002074703704408 -0.3136227888611522 -0.0382392009546626 255 255 255 255 
-0.3118845272496311 0.5440542201339393 0.06026934831972595 255 255 255 255 
-0.2004012767690234 -0.2612935164416699 0.1521139662314683 255 255 255 255 
-0.2460975588069379 -0.2024968063273826 0.0101005413304788 255 255 255 255 
-0.05665651219382974 0.6905667750967306 0.08533679100435806 255 255 255 255 
-0.1724730003267053 -0.4974219251237046 -0.1244469344342199 255 255 255 255 
-0.1097782294032565 0.1940859730368945 -0.1231447129841701 255 255 255 255 
-0.3364504599756437 0.5095401243867539 0.113063037298361 255 255 255 255 
-0.200360634908505 0.5860254505915957 -0.01662788075956951 255 255 255 255 
-0.01875059100045142 0.7354003622157864 -0.02129446890115473 255 255 255 255 
-0.2826631041688634 0.4157073964081653 0.2503385606155404 255 255 255 255 
-0.2202884942822141 -0.2318783037836094 0.006047628859983783 255 255 255 255 
-0.1151107748928679 -0.4980745016977807 -0.01292538647739176 255 255 255 255 
-0.1398216289561492 0.4645389173809968 0.08358423936141646 255 255 255 255 
-0.1555457255723016 -0.2001990588892963 0.06927770379031971 255 255 255 255 
-0.01898852770078906 0.05862754785443342 -0.09817371029970806 255 255 255 255 
-0.1686583930738889 -0.5634417728514124 -0.1546484839951373 255 255 255 255 
-0.1067313843188478 0.7452134520682924 0.06545033797109925 255 255 255 255 
-0.2422184289361744 -0.5465897275340329 0.1488721462171841 255 255 255 255 
0.05635959850634935 0.2789185810685674 0.004991872328986751 255 255 255 255 
-0.2305753596210393 0.5541114036009669 0.2157033547198217 255 255 255 255 
-0.1677485976859902 0.6037510724447365 0.004422647225593875 255 255 255 255 
-0.001597598824392395 0.1902368509720457 0.1031635277257685 255 255 255 255 
0.02671576088432013 0.2948058953345801 -0.2085759124612251 255 255 255 255 
-0.1085535235148407 -0.006801331896739589 0.05689162147425222 255 255 255 255 
0.0659887845364729 0.4416035493493705 -0.1712779267685839 255 255 255 255 
0.08853055057105207 0.3405040365989869 -0.1844724613830466 255 255 255 255 
-0.2872511512357567 -0.0350557843439657 0.05297798718492417 255 255 255 255 
-0.1646421178673732 -0.631732217677452 -0.1707911305060234 255 255 255 255 
-0.1547692247779111 -0.412123578457964 -0.03587512902743493 255 255 255 255 
-0.1667161114446358 -0.6897566892421125 -0.009975316146653044 255 255 255 255 
-0.06847950994465335 0.4056337336403024 0.09698290450396455 255 255 255 255 
-0.2993714548308108 -0.5931720157889613 0.1008844367562238 255 255 255 255 
-0.1364635144572325 0.3625354446902356 0.1293197405931321 255 255 255 255 
-0.2320510832542638 0.5521353223762773 0.01026019931303895 255 255 255 255 
-0.2441565418711074 0.234770506059728 0.1414092956711145 255 255 255 255 
-0.01597763060200922 0.2701098831670912 0.1255005486663424 255 255 255 255 
-0.0320399554534088 0.6067938266585435 0.07274100756137951 255 255 255 255 
-0.1195932419947308 -0.6102174271253484 -0.00494977630455401 255 255 255 255 
-0.1592313954352454 0.01074953438868399 0.0953010329717021 255 255 255 255 
0.05702755177166587 0.1722107718890019 -0.02141318488208428 255 255 255 255 
-0.1820775777279653 -0.6237634532181113 -0.1144482381192875 255 255 255 255 
-0.1654311661988117 0.2127225087455211 0.1216545757023572 255 255 255 255 
-0.3011039650783102 -0.499764426452433 0.06927363925630538 255 255 255 255 
-0.1053788238413512 -0.622821706448156 -0.147843384519691 255 255 255 255 
-0.2271556601903004 -0.3528118906890698 0.1602694108561313 255 255 255 255 
-0.1513515507091055 -0.02189799499463343 0.091016455079397 255 255 255 255 
-0.02163598429513672 -0.2035852388692739 0.0007956588500580737 255 255 255 255 
-0.1267867736258163 -0.1971533256235358 -0.08613390953998096 255 255 255 255 
-0.1746073698911189 -0.2898213987112893 0.1165340964431978 255 255 255 255 
-0.2143524290818676 -0.578543520981559 0.1469900055352167 255 255 255 255 
0.0478350134541648 0.1903753280899014 -0.03972813844781393 255 255 255 255 
-0.1875067581613569 -0.2919991409950037 0.02627052505005698 255 255 255 255 
-0.01067749566180145 0.6663462247399735 0.01404594308020112 255 255 255 255 
-0.3222912248326986 0.4013061719481115 0.2039186191662869 255 255 255 255 
-0.1483979843539391 0.5486736874668461 0.1397130255276537 255 255 255 255 
-0.1746302391862869 -0.4893734959391791 -0.05645949126206504 255 255 255 255 
-0.1418365290186275 0.6116656073864793 -0.1134714803260973 255 255 255 255 
-0.07569465470127251 0.1386351332283389 0.1096189263086239 255 255 255 255 
-0.0987679210221433 -0.5556961082333296 -0.005573667925797632 255 255 255 255 
-0.2266358467916035 0.4836479100810971 0.08014273557530507 255 255 255 255 
-0.0131482071297248 0.63208448746158 0.01511773584101392 255 255 255 255 
-0.3249578406359777 0.480203687792744 0.1405599244175426 255 255 255 255 
-0.2765458980685486 0.001532922287133288 0.0962074749055823 255 255 255 255 
-0.2407846359686414 -0.2288655231172149 0.1520617901957337 255 255 255 255 
-0.1553137970682091 0.6690919700453729 0.130860352001113 255 255 255 255 
-0.1912244647393735 0.0161349847016578 -0.08966740682359853 255 255 255 255 
-0.140006364974413 -0.08464050193069003 0.05684585279144737 255 255 255 255 
0.0001271907018789384 -0.1287894453797072 -0.004524508182563546 255 255 255 255 
-0.05400458357345678 0.4577459037195819 -0.1702389476169047 255 255 255 255 
-0.2050235548228784 -0.4051089169047546 0.1299942891492958 255 255 255 255 
-0.1004641839301726 0.6956810910191781 0.07691643247974188 255 255 255 255 
-0.1770962115303681 -0.4759099369888753 -0.08886446297976044 255 255 255 255 
-0.0369242412018516 -0.3870453736609044 -0.03654987887317764 255 255 255 255 
-0.3511720602235208 0.4447792720353105 0.1264984718065527 255 255 255 255 
-0.2841209012499302 -0.5706129910283424 0.1118904778323557 255 255 255 255 
0.01643525813507887 0.3203948026090681 0.05464403881105345 255 255 255 255 
-0.02862445097414136 0.7310819397944436 0.0585671643178991 255 255 255 255 
-0.2161065719703925 -0.5679801119807264 0.1507849160307962 255 255 255 255 
-0.1459275793053831 -0.6766363818260106 -0.114990359384877 255 255 255 255 
0.01782738098838115 0.4435892723090251 0.02315981023108543 255 255 255 255 
-0.2203554971047682 0.02566255599220942 -0.08468105826020594 255 255 255 255 
-0.2791987325686616 -0.5856738645080158 0.1161335217154254 255 255 255 255 
-0.2575263334182078 0.358084936245374 -0.03365845797345596 255 255 255 255 
-0.1048933315006779 0.6052847785635558 -0.1189014769052706 255 255 255 255 
-0.1879114606533691 0.4988471864214849 -0.1151208229047167 255 255 255 255 
-0.2998278894933678 -0.4877084025345173 0.07459220500369046 255 255 255 255 
-0.06053564471061479 -0.1191360868288756 -0.0995288697815408 255 255 255 255 
-0.1243732083270376 -0.4042790436999761 -0.1443971111967781 255 255 255 255 
-0.1590873681086041 0.2464414305832111 -0.09615290113398625 255 255 255 255 
0.05121929168890083 0.09746002032402652 0.01691608922786849 255 255 255 255 
-0.2556921889614105 -0.404599795122857 0.1364279562036249 255 255 255 255 
-0.03870479392644312 -0.3633839817074884 -0.0146204113790514 255 255 255 255 
-0.09536078179900542 -0.2065236762284191 0.04073728503254416 255 255 255 255 
-0.2823649386451949 0.4372935327071525 -0.01461884479996532 255 255 255 255 
-0.280075984556992 0.4626897108698387 0.2651229573388955 255 255 255 255 
-0.1259604428919804 0.3247922683943313 -0.1332440333817464 255 255 255 255 
0.02579659749327769 0.293496792067104 -0.1013909410976532 255 255 255 255 
-0.2719261777569251 -0.4787264569771101 0.004126458353096288 255 255 255 255 
-0.2708245964575909 -0.04786468453481962 0.1124463833563707 255 255 255 255 
-0.1484297985293736 0.6680738287241439 0.1363863935567144 255 255 255 255 
-0.2529832237769729 -0.4094713804232212 -0.0002617087903784604 255 255 255 255 
-0.2494691107474289 -0.5485452772531469 -0.0119175400543812 255 255 255 255 
-0.05830737571591837 0.1568878974077587 -0.1218576916360615 255 255 255 255 
0.06056749044181507 0.3629618244685169 0.02014106535154182 255 255 255 255 
-0.3042189110692461 -0.7210566040103266 0.07389607859264247 255 255 255 255 
-0.2439637049734501 0.3552500401044003 0.1238312307265267 255 255 255 255 
-0.2608721876260183 0.3274038237983954 0.09414716310714913 255 255 255 255 
-0.2070645718507636 0.3701020014013501 -0.107982549547437 255 255 255 255 
-0.2299761195240695 -0.4710306741012477 0.1565277408243008 255 255 255 255 
-0.07322291026765496 -0.2451226819458611 -0.1075797428311599 255 255 255 255 
-0.001126072906320603 0.4836467667134641 -0.003782016456562236 255 255 255 255 
-0.1788760993011045 -0.2505556269682774 0.02634884474268689 255 255 255 255 
-0.240434057019512 -0.01332343075490471 0.1294053871272296 255 255 255 255 
-0.02608661405270496 -0.2496614926682009 -0.01574279068152376 255 255 255 255 
-0.1935949020705122 -0.5457795217067289 0.01781098232670745 255 255 255 255 
-0.3133937882674924 0.5438093052666669 0.03466750607403441 255 255 255 255 
0.0455810821788102 0.5105471560386395 -0.1039597195668265 255 255 255 255 
-0.1204398093250943 0.7598860426853087 0.03592657098709177 255 255 255 255 
-0.1295801914705528 0.7395317235769914 -0.07827877038068409 255 255 255 255 
-0.09104109690941165 -0.5194688841254337 -0.008742634360277127 255 255 255 255 
-0.3435714475409267 0.4350009439004183 0.1238174470091721 255 255 255 255 
-0.03557011255943189 0.5115153879677442 0.002062322048737297 255 255 255 255 
0.01635640876593612 0.4031123100994771 0.05784414214192704 255 255 255 255 
-0.0140548099120731 0.7162262663486235 0.03888360995041784 255 255 255 255 
-0.2814072820780926 0.1077483488301188 0.03488124394747603 255 255 255 255 
-0.2955478300603512 -0.1769651458308176 0.07670347230404163 255 255 255 255 
-0.2938407331892697 0.5073577688520143 0.2435524811157306 255 255 255 255 
-0.2207500655714229 0.08208435679646436 -0.09687457851479865 255 255 255 255 
0.005341028975371672 0.236488499724246 -0.1596429549271859 255 255 255 255 
-0.167010009490076 -0.4074655167545242 0.07959025425139649 255 255 255 255 
-0.006172073363147334 0.239624849202499 0.1223859539958968 255 255 255 255 
-0.1862784729069649 -0.6482154815758171 -0.102108431539363 255 255 255 255 
-0.2454222007899809 -0.5350894132117692 0.1490943177106412 255 255 255 255 
-0.1727751923175676 -0.5800537072841588 -0.03572126848620701 255 255 255 255 
-0.1454155783381635 0.5329063868151973 0.0374757721717951 255 255 255 255 
-0.1987896154589691 0.4853080963028658 0.1639738139095401 255 255 255 255 
-0.2824694027543455 -0.06817577287572682 0.09635464645358482 255 255 255 255 
0.09405626345492668 0.3156219346601742 -0.1862874558189915 255 255 255 255 
0.05160138125017305 0.1903952683060227 -0.04879236498215944 255 255 255 255 
-0.08546012730123861 -0.5235537335905986 -0.1453112762901975 255 255 255 255 
0.051481346952825 0.1660400856133341 0.04136950065567568 255 255 255 255 
0.001033576300645417 0.048951180791878 -0.06873794380956344 255 255 255 255 
-0.1476923502913259 -0.2659332267677902 -0.01349635245317101 255 255 255 255 
-0.1681716809554414 0.4418364186365633 -0.129164529375771 255 255 255 255 
0.04018020053419306 0.5129639442362575 -0.1535125168876212 255 255 255 255 
-0.1413268375862087 -0.1491353459282352 -0.002403785233739461 255 255 255 255 
-0.08844436326781038 -0.659679422490567 -0.02568761156710337 255 255 255 255 
-0.2861271865476723 -0.3658922547516621 0.03276769501204745 255 255 255 255 
0.1103752250278471 0.2548014781618044 -0.1581452890720922 255 255 255 255 
-0.136056616585991 -0.2134986762228285 -0.07701388778085039 255 255 255 255 
0.04010827893753127 0.3080473934326888 -0.09870360559973991 255 255 255 255 
-0.2785103923929064 -0.4223957586594814 0.1091406732086162 255 255 255 255 
-0.1040694188824578 0.2601932222490059 -0.1302263774661664 255 255 255 255 
-0.2949563336150789 -0.7101028783005101 0.166470585182143 255 255 255 255 
-0.1513261458745357 0.4796134991473607 0.07333394021925838 255 255 255 255 
-0.2114631772000165 0.5091833221681507 0.2215657066825902 255 255 255 255 
0.02910419364319569 0.3034705968003062 -0.1010550579577266 255 255 255 255 
-0.2663246609690111 -0.5872076760958291 0.1314668930716181 255 255 255 255 
-0.02474685934804041 0.03538934526207697 0.07916101115520563 255 255 255 255 
-0.2487622633297513 -0.2992472274669371 0.1450745913937878 255 255 255 255 
-0.1202819220175345 -0.5053262099792235 -0.01547234179338169 255 255 255 255 
0.03465700268673562 0.3556264304214096 -0.0692272377403419 255 255 255 255 
-0.1852349594806084 -0.3737353241939981 0.1068431300553115 255 255 255 255 
0.008543816624820993 0.2750317320640535 -0.1352141562854076 255 255 255 255 
-0.02688922439255918 0.6437450678957762 -0.03074639686149135 255 255 255 255 
-0.002423957617851952 0.04105662795463663 -0.07366647203449816 255 255 255 255 
-0.09743926934916181 -0.001252591560991872 -0.1185417026850981 255 255 255 255 
-0.162939455921413 -0.3842741792314271 -0.09027824838875752 255 255 255 255 
-0.1013214963184973 -0.06185822247824335 0.05324003201118954 255 255 255 255 
0.04371364143013468 0.4721928922939239 -0.1740070403558499 255 255 255 255 
-0.12533497939116 -0.4366734850130494 -0.019536358821837 255 255 255 255 
0.0860992933075781 0.1713252750902723 -0.04349020534173612 255 255 255 255 
-0.1747847386504178 -0.563792693573663 -0.1449270562054112 255 255 255 255 
-0.1624233354033815 -0.2540988175104043 0.06079099724476963 255 255 255 255 
-0.185108029464323 -0.3247628083868426 0.1257390005979001 255 255 255 255 
0.05762036170252774 0.4287162037354284 -0.09050401375595464 255 255 255 255 
-0.2318847622608538 0.537056469708471 -0.08073110157656929 255 255 255 255 
-0.03537229608563658 0.7577397501457644 0.02818907256235683 255 255 255 255 
-0.07496108279780575 -0.5400140646077251 -0.02690523326264571 255 255 255 255 
-0.08214622987417505 0.5343774512201958 0.02264088969543596 255 255 255 255 
0.02513422218022495 0.2233677504173971 -0.1879640359975346 255 255 255 255 
-0.1706441768537504 -0.554957810761322 -0.03937123719363095 255 255 255 255 
-0.04809138555060824 0.5375432236147788 -0.01080112764367903 255 255 255 255 
-0.201386656315296 0.4932276239112632 0.07324242372532216 255 255 255 255 
0.01620857512461552 0.335761435024204 -0.2007718054924702 255 255 255 255 
0.00936541420211187 -0.08493136977100266 -0.01476040172247069 255 255 255 255 
-0.2349741673146403 0.3049649425257178 -0.05007650530469283 255 255 255 255 
-0.03027391343196249 0.6333830007622112 0.07691743442396862 255 255 255 255 
-0.2827523360507814 0.5514823257186722 0.03928751878623646 255 255 255 255 
-0.1579835975679632 -0.1745988723164594 0.04456287522699094 255 255 255 255 
-0.1189064749854684 -0.3856638828040792 -0.01386934083915065 255 255 255 255 
-0.3250212537584189 0.4579692160130839 0.2083513363702753 255 255 255 255 
-0.08652032725162315 0.3757136821275244 0.1105132033628766 255 255 255 255 
0.02244911347396257 0.2298463123757395 -0.06292339617389373 255 255 255 255 
-0.2151526520883484 0.5297322202150908 0.2181612890398879 255 255 255 255 
-0.01466785117813307 0.7108496856716596 -0.01761032552386864 255 255 255 255 
-0.03369728970248499 0.5982005921199389 0.07422082946775499 255 255 255 255 
-0.09382754779378351 -0.6845557859684478 -0.02060494528290008 255 255 255 255 
-0.001752071868529742 -0.1114292034606868 -0.04619116250694577 255 255 255 255 
-0.1654774059205821 0.03278860955678634 0.1060024461113796 255 255 255 255 
-0.09709819975119267 0.08538887144833192 0.1040551010024687 255 255 255 255 
-0.2590495288855925 -0.710687732938011 0.1708060759379147 255 255 255 255 
-0.06223384835922702 0.2192403885626594 0.08490892211511493 255 255 255 255 
-0.03588585787911731 0.08294782275837666 -0.1178187042880079 255 255 255 255 
-0.00992121681234142 0.01669290742672079 0.07203873562968029 255 255 255 255 
-0.2156191280848594 -0.6620353480393912 0.0001191367276604506 255 255 255 255 
-0.05138597817377889 -0.5107918027769902 -0.06895428186390211 255 255 255 255 
-0.2424412779968242 0.4940458679892408 -0.08706282640878624 255 255 255 255 
-0.1380317255297376 -0.3473694484241758 -0.1177620789608844 255 255 255 255 
-0.342670591944944 0.5038600972276522 0.1175355444062887 255 255 255 255 
-0.03813887099149975 0.2641527872989538 -0.1222306022760078 255 255 255 255 
-0.07169329780461374 0.1131452040325507 -0.1362444566865345 255 255 255 255 
-0.2594565283029299 -0.6253969393603162 0.1374300810817235 255 255 255 255 
-0.2360620825574547 -0.3051010570659296 0.1571939924773149 255 255 255 255 
-0.173203487704187 0.6370970980213031 -0.08137456306839319 255 255 255 255 
-0.2556380818830133 0.2254306116241037 0.03982815192762981 255 255 255 255 
-0.2610517920480725 0.417632886492015 0.2473655009181739 255 255 255 255 
-0.2872622063142314 0.4246523135095496 0.02351951292002761 255 255 255 255 
-0.1823011056624195 0.4521387721590594 -0.1237993098752992 255 255 255 255 
-0.2871317673740072 -0.6638839241631037 0.04374063487716989 255 255 255 255 
-0.2776937994507291 0.1400031011115604 0.03957381490023929 255 255 255 255 
-0.2651610557432761 -0.4352804555719415 0.002432519470756601 255 255 255 255 
-0.3052127966567548 -0.6119824804483046 0.06549365056454508 255 255 255 255 
-0.2741182530707302 -0.02728384614070311 -0.005277277313103402 255 255 255 255 
-0.05275362738017403 0.4940360446275571 -0.1677270603209141 255 255 255 255 
0.03899210042799067 0.3552655703721184 0.0559400933823743 255 255 255 255 
-0.3160219723033452 -0.7165592131987699 0.09325131549955509 255 255 255 255 
-0.0283577067608126 -0.2492907094052343 -0.07576181986992354 255 255 255 255 
-0.2912852717323396 -0.1603415256778811 0.06286922953672533 255 255 255 255 
-0.04889215527304083 -0.5009723637501857 -0.07149795376396116 255 255 255 255 
-0.2780436005443723 -0.0569569276618372 0.01338818696874015 255 255 255 255 
-0.2358561954866799 -0.4329178700503596 0.1523854612348158 255 255 255 255 
-0.2012465092868383 0.539812396728712 0.03094264674704618 255 255 255 255 
-0.1413893544873729 -0.07679403576580895 0.06312912724371042 255 255 255 255 
-0.1729349891132345 -0.5047501592302717 0.08140581219026889 255 255 255 255 
-0.04578727703034317 -0.2083241580924864 -0.08863622839103502 255 255 255 255 
-0.243926853446991 0.05339786223802524 -0.07485043353732831 255 255 255 255 
-0.1237268575492922 0.5388456118172724 0.03655587511747095 255 255 255 255 
0.02764887698900103 0.1640480449919746 0.05597281526395003 255 255 255 255 
-0.1678185278197287 0.5613012377813826 0.1902648145914584 255 255 255 255 
-0.2462717979012666 0.35198358410984 0.1102415032570942 255 255 255 255 
-0.1459267449584757 -0.1337004818864074 -0.01644984355301473 255 255 255 255 
-0.150523566249275 -0.6593057070653614 -0.1829575572874829 255 255 255 255 
-0.245155410156695 -0.2211824190130809 0.1493912128667864 255 255 255 255 
-0.1773561715176243 -0.6933043673480628 -0.09808286046869422 255 255 255 255 
-0.2178016570256213 -0.2429377458740911 0.006709376394303552 255 255 255 255 
-0.09877310320735284 -0.1486468698060471 -0.1007198353078367 255 255 255 255 
0.04298213215705435 0.470829384223078 -0.05694514684195391 255 255 255 255 
-0.1952266512525482 0.1540643671526437 0.1234172714913061 255 255 255 255 
-0.01956191400608849 0.5397605623617945 -0.02349689145439102 255 255 255 255 
-0.2820519479774545 0.08777448358736907 -0.009223416967249142 255 255 255 255 
-0.07161766024036004 0.2333264618779611 0.08799512377103838 255 255 255 255 
-0.2116862948180501 -0.03324469132793315 0.1410235131055078 255 255 255 255 
-0.1105756790137732 -0.3581625922235244 -0.001324048454592682 255 255 255 255 
0.006889051162042295 0.2558689061388959 -0.1216189241445718 255 255 255 255 
0.06605234642789901 0.2241661724657586 -0.09580902596114396 255 255 255 255 
0.07708962980600095 0.3315524664122029 -0.2055028495063099 255 255 255 255 
-0.282682374539709 -0.5127823795478246 0.01520181484548779 255 255 255 255 
-0.2858336784817028 0.006557586658774955 0.0647127484977805 255 255 255 255 
-0.08501261138299609 -0.214340289463547 0.04297723398519784 255 255 255 255 
-0.1424808636823021 -0.05539915705664834 -0.04909372551600451 255 255 255 255 
-0.1749124098119156 -0.5167385866173616 -0.126851100865004 255 255 255 255 
-0.2108381546307058 0.1002830196770448 -0.1037838508527245 255 255 255 255 
-0.03791585770978294 0.3930651279316884 -0.1758993186711643 255 255 255 255 
-0.1397687136284803 0.1060282269621947 0.1154519519894976 255 255 255 255 
0.006963243967230193 0.2390161460773533 -0.1717304092771874 255 255 255 255 
-0.2453172154992839 -0.6212554357019638 0.1527847779928824 255 255 255 255 
-0.119827027585904 -0.01666734908797137 -0.09563055718221312 255 255 255 255 
-0.05233729479120021 0.6114550708464526 -0.04246765214500239 255 255 255 255 
-0.1312470192559009 0.4305024013927149 0.1091130670324019 255 255 255 255 
-0.2434515794593366 0.4830258839840204 -0.08855168578106297 255 255 255 255 
-0.1904365606171741 -0.6804389354779782 -0.06065303288551128 255 255 255 255 
-0.2541333107353004 0.3867576482665739 0.03513909965577114 255 255 255 255 
0.06137561602160697 0.2131221428093651 -0.08340952991173982 255 255 255 255 
-0.1775090193160352 0.004748619047466321 0.1144101505142008 255 255 255 255 
0.004094723367887373 0.2385511543529127 -0.1502026732134451 255 255 255 255 
-0.1322883950579672 -0.1448751406848487 0.0122873915924607 255 255 255 255 
-0.2929574557770549 -0.4775492214478203 0.02888127663628617 255 255 255 255 
-0.1764305783092516 -0.4708570656382919 -0.08159592685084727 255 255 255 255 
-0.1730535330193678 0.5171524841778545 0.1835815465870428 255 255 255 255 
-0.1178611878768428 -0.2898425764754523 -0.1133459781145597 255 255 255 255 
-0.04130387970123202 0.6033289589751375 0.07614607723296185 255 255 255 255 
-0.154969354704086 -0.07330102164486992 0.0009621582504405944 255 255 255 255 
-0.2034184978373071 0.38665966027403 0.1072838882378046 255 255 255 255 
-0.2761481079858598 0.3910830894856293 0.2023945225965816 255 255 255 255 
-0.1715702601730277 -0.4720609799997105 0.06803750608230358 255 255 255 255 
-0.2164952452040699 -0.5452544661306994 0.1578929362327764 255 255 255 255 
-0.09708476829257519 0.03987837078112524 0.08597765496597279 255 255 255 255 
-0.1457262521902098 -0.3739454845461051 -0.1195045192237866 255 255 255 255 
-0.1591350274663581 -0.3257564230826965 -0.07146739046714889 255 255 255 255 
-0.2103630626614488 0.2990484220490685 0.1357992819108328 255 255 255 255 
-0.3532783443678595 0.4693324983017743 0.1050510519527285 255 255 255 255 
-0.1271159072385578 0.7719251166591308 -0.009609862928150126 255 255 255 255 
-0.1034347493226139 -0.1915911582648402 0.04075442686750001 255 255 255 255 
-0.1687194075862792 0.2472512792999685 -0.08825255276679574 255 255 255 255 
-0.03191551509999643 0.5896490117338756 -0.08703763969919248 255 255 255 255 
-0.1171519652170296 -0.521575415198697 -0.1631591891385474 255 255 255 255 
-0.257330055466988 0.190113771002218 -0.01268206603466814 255 255 255 255 
-0.03135674388719695 0.7138951697315877 0.07066707543672743 255 255 255 255 
-0.02321524520349933 0.7439736015590963 -0.02084608281145579 255 255 255 255 
-0.1416908672518782 0.6992748183664076 0.04827097950777672 255 255 255 255 
-0.08890250333902337 -0.6009049977502863 -0.1445402253444541 255 255 255 255 
-0.1814410750165266 -0.0354860003842407 -0.04884494674294562 255 255 255 255 
-0.2294219601147754 0.3700689987144477 0.1282752184214762 255 255 255 255 
-0.1399772090764402 -0.6849603618917055 0.00678900679894408 255 255 255 255 
-0.2167425136391744 -0.1277726576569973 -0.02344915507766361 255 255 255 255 
-0.3305596527267436 0.4113142294537905 0.1765349146303145 255 255 255 255 
-0.1583902649798648 -0.2027757494898255 0.06035818657168956 255 255 255 255 
0.03543395468560197 0.3787855284605981 0.05188989153480698 255 255 255 255 
-0.08035018309334377 -0.5322710320212607 -0.1376661540423327 255 255 255 255 
0.06060164734840153 0.3864545592755559 -0.01933113929565036 255 255 255 255 
-0.2793238176221713 -0.02077646970543869 0.00364185407922424 255 255 255 255 
-0.07568877963590137 -0.5785541986343277 -0.1230079344859493 255 255 255 255 
-0.1445564634187629 -0.6710626106803524 -0.005920122639906957 255 255 255 255 
-0.1751644527609217 -0.4818632442635611 0.04750683162696779 255 255 255 255 
-0.08341997871949119 0.6842436397000037 -0.1056389230340987 255 255 255 255 
-0.2766504030793636 0.4096058252442293 0.054095196270933 255 255 255 255 
-0.1920973491787229 -0.322865760090441 0.02291547054800243 255 255 255 255 
-0.1531959174086533 -0.2594901508948572 -0.01848930140334576 255 255 255 255 
-0.2823138343840416 -0.6135979658094739 0.0276179348901112 255 255 255 255 
-0.04229919942871934 -0.06464180343391865 -0.09770125869721828 255 255 255 255 
0.1053524745139988 0.1975077851291986 -0.1064237844790117 255 255 255 255 
-0.298246704277309 -0.3768971711242641 0.07699319916127961 255 255 255 255 
-0.1916650246486875 0.304953882561194 0.1094912596260778 255 255 255 255 
-0.1751008219036402 -0.5993567033973186 0.1094538539031966 255 255 255 255 
-0.2913241541381393 -0.7499312270357259 0.1707629464462943 255 255 255 255 
-0.1656658843214212 0.6479700929899272 0.1493251428910536 255 255 255 255 
0.09427130425335162 0.1419319072707147 -0.07904775747145851 255 255 255 255 
-0.07990014421133908 0.7673247873855338 -0.0601696686497635 255 255 255 255 
-0.2701228059195029 -0.3255597782884773 0.0204619973901644 255 255 255 255 
-0.143302430182473 0.59421555766602 -0.1183739270651813 255 255 255 255 
-0.2742079397587128 -0.4461792021928035 0.1098784462452231 255 255 255 255 
-0.03665687000617578 0.2319186014073548 -0.1056785932628511 255 255 255 255 
-0.04948397108136932 0.61139431777902 0.0769843346639501 255 255 255 255 
0.08222640893880656 0.2920843494691296 -0.2112388094833857 255 255 255 255 
-0.1755493587627064 -0.6225302439905336 0.09788484064668183 255 255 255 255 
-0.2517816870217116 -0.1465413368861983 0.1381316192972306 255 255 255 255 
-0.1987437685223403 -0.2766869569547177 0.01285563520491608 255 255 255 255 
-0.2828545738387875 -0.4751500938422125 0.1028530812481431 255 255 255 255 
-0.249866397078505 0.3845160649408066 0.08974833035687269 255 255 255 255 
-0.03503506005785 0.6250493529743171 0.07897971490550483 255 255 255 255 
-0.09646727332442395 0.3531946470263291 0.1102292112542233 255 255 255 255 
-0.1771221251284435 0.5309251612750185 0.04685906843886612 255 255 255 255 
-0.2622648479410949 -0.14410761123282 0.1314953992315516 255 255 255 255 
-0.05031632722149579 -0.5075316637132021 -0.05987977034010885 255 255 255 255 
-0.002248240247035953 -0.1279702265703314 -0.04018023480113894 255 255 255 255 
-0.02417110020252679 0.5714999987724722 -0.05585896473821206 255 255 255 255 
-0.1255905813628773 0.05489259344862368 -0.1374206438488443 255 255 255 255 
-0.3078833927502055 0.4389703873816784 0.03760205300067865 255 255 255 255 
-0.02962237202486942 -0.06781403143735584 0.06706414987694163 255 255 255 255 
-0.1410082313541469 0.1564683658197875 0.1260708381706718 255 255 255 255 
-0.1786545550809401 -0.1034344716039051 -0.01770803436081932 255 255 255 255 
-0.2262473978821865 -0.4947188555644244 -0.0087643590228063 255 255 255 255 
-0.133875574984855 -0.03726878215371617 0.03349463669354368 255 255 255 255 
0.02968785952421204 0.2286574466654025 -0.05046486259979976 255 255 255 255 
-0.08112941930725023 -0.08917023618960525 -0.1009446348214851 255 255 255 255 
-0.1482743227032674 -0.1452889245900275 0.07234368202795709 255 255 255 255 
0.02577535405819931 0.2306851851451517 0.07880763948697157 255 255 255 255 
-0.1997752434454706 -0.5526138119618909 0.006967974477783475 255 255 255 255 
-0.2622399825567537 0.3471615518558809 0.06931083688628908 255 255 255 255 
-0.02261309391298736 0.3727067005509438 -0.1663677964194843 255 255 255 255 
-0.04049746245051171 -0.402873255897803 -0.07834780422712959 255 255 255 255 
-0.06427926887321635 -0.3623603602926393 -0.1241301422515664 255 255 255 255 
-0.01380454421726008 -0.1251639022484644 0.02841027038805299 255 255 255 255 
-0.0904815485598172 -0.1553560210475268 -0.1023903893573403 255 255 255 255 
-0.1801674227274347 -0.4190646970977567 0.03013481963498804 255 255 255 255 
-0.008504457887431809 0.3576940066262421 -0.1543678946911935 255 255 255 255 
-0.2074647346335916 -0.3886611357241321 0.1438176837421354 255 255 255 255 
0.005563270918643102 0.1780461966077866 0.09029639113447352 255 255 255 255 
-0.2820233600866457 -0.5456024004384169 0.1187185406174023 255 255 255 255 
-0.2143815838203009 -0.1866712084352691 -0.004534955192506638 255 255 255 255 
-0.1698639709818237 -0.4256384903903823 -0.08336287334579949 255 255 255 255 
-0.2906813696411846 -0.3239384938901876 0.06487440536569365 255 255 255 255 
-0.3416233051606803 0.4300335181630562 0.1369873310274794 255 255 255 255 
-0.2028074350032347 0.5756430138651437 0.1312759991640506 255 255 255 255 
-0.04696162515812893 0.3889401897165806 -0.1751381290776267 255 255 255 255 
-0.1341595531747982 0.7645207920783458 0.0138165333534148 255 255 255 255 
-0.2361850085985677 0.2341517491736097 0.1373307346989825 255 255 255 255 
-0.2154857568389419 0.4799232622056019 0.07970560077617804 255 255 255 255 
-0.2075143359096909 -0.008549977651247487 -0.07501950806450881 255 255 255 255 
0.1000702696296412 0.1711217895530238 -0.06689423773573538 255 255 255 255 
-0.06560350351497482 -0.3801589637250766 -0.1277247155382935 255 255 255 255 
-0.08910524458854899 0.1373650101026008 0.1166579673008735 255 255 255 255 
-0.2314321102964399 0.1191031942003727 0.1113732577171958 255 255 255 255 
-0.1487897258278974 -0.5643296023009183 -0.1675030570548525 255 255 255 255 
-0.01229172237267754 0.112135093123798 -0.0899904041110301 255 255 255 255 
-0.1686107545606497 -0.3833677175165638 -0.06337282350203029 255 255 255 255 
-0.01245569294556195 0.7162909699387126 -0.005274858871449859 255 255 255 255 
-0.1629510596939704 -0.1533607642318802 0.01991534953516938 255 255 255 255 
-0.1401383453123037 0.6722780371199194 0.09481464218169035 255 255 255 255 
-0.2497486223787923 0.2817546762261536 0.02219613148529363 255 255 255 255 
-0.03885753587234358 0.1268964912388574 -0.1165515229502021 255 255 255 255 
-0.03341793943173194 -0.3650259929510095 -0.03599558307583954 255 255 255 255 
-0.09365723632492541 -0.08040777740429579 -0.0975835584389091 255 255 255 255 
-0.2192877025600471 -0.3278496553843137 0.1582054172737847 255 255 255 255 
0.05174570613766764 0.1102736421916862 0.02829678902914139 255 255 255 255 
-0.1517342884849568 0.5408669206600504 0.09934433296582845 255 255 255 255 
-0.3017185629962755 -0.5528542105067951 0.08514422748350822 255 255 255 255 
-0.0244181635961812 0.2402829352564514 0.12879561378492 255 255 255 255 
-0.2055632072784977 0.1936729958271492 -0.07597870554777165 255 255 255 255 
-0.03838464497489255 0.5824647069641979 -0.05264307999255323 255 255 255 255 
-0.154083689278886 0.6647907142720169 0.03347977160795662 255 255 255 255 
-0.06153739763648054 -0.5610458034780875 -0.06780857839126282 255 255 255 255 
-0.04368849617673087 0.2532165684878582 -0.120822984335091 255 255 255 255 
-0.2817783625080972 -0.7524930394760769 0.1652822814130264 255 255 255 255 
0.04200489382545744 0.2790830188826813 0.06061540955952689 255 255 255 255 
-0.08554750289082855 -0.3567528642753439 -0.1393287124998448 255 255 255 255 
0.0623683399944811 0.1573675717135967 0.008852558181593181 255 255 255 255 
-0.07439716859089628 -0.5362259850748847 -0.1302558936100568 255 255 255 255 
-0.2520954133012012 0.2869738006569748 0.1474281444061155 255 255 255 255 
-0.3077017065999578 0.4625844716294792 0.005581715870622311 255 255 255 255 
-0.2770338203088238 -0.4868134510008297 0.1091711851233368 255 255 255 255 
-0.2560200944616711 -0.2760066362639274 0.02289186107108127 255 255 255 255 
-0.1952016769584453 -0.5027374911495592 0.01287924447396884 255 255 255 255 
-0.04476278609077868 -0.3057043860876324 0.005851086360534937 255 255 255 255 
-0.1419191943605864 -0.06632205976863462 0.06429754131224581 255 255 255 255 
-0.1401321101673554 -0.5066347244556526 -0.1591257107084877 255 255 255 255 
-0.03176762331867614 -0.03634521464543179 -0.09556476114486963 255 255 255 255 
-0.1148633782955086 0.05017726488302374 0.09821648184414739 255 255 255 255 
-0.1332911332671707 -0.4771276089597866 -0.02124400266211909 255 255 255 255 
-0.2862685549047728 0.5298708504444385 -0.02842722422586052 255 255 255 255 
-0.2552694241295789 0.3808481051023331 0.0216486374893954 255 255 255 255 
-0.04911880493435435 -0.404218110069995 -0.01383271100134547 255 255 255 255 
-0.04144505652515906 0.7437067862445024 -0.0594274112748209 255 255 255 255 
-0.06484746885830928 -0.2117232522532251 -0.102628503356627 255 255 255 255 
-0.02981018159340042 0.2588058215411519 0.09891190984739384 255 255 255 255 
-0.3138755062961358 0.5314704176495262 0.098611511394394 255 255 255 255 
-0.1816149066666128 0.6266860937303748 -0.01943572233989298 255 255 255 255 
-0.2317587603107795 -0.5181875260173172 -0.01257802217330741 255 255 255 255 
-0.2598147819530948 -0.2765315647119021 0.1403887483354592 255 255 255 255 
-0.1409429470936423 0.5291451725223525 -0.1378877236269981 255 255 255 255 
-0.1946205957466365 -0.2897381887868518 0.1453050912664917 255 255 255 255 
-0.1030754130227077 -0.3184450310812712 0.02796818384879406 255 255 255 255 
-0.05343990622229083 -0.5113777669305554 -0.09125868755718401 255 255 255 255 
-0.04710270336849341 0.5966658737393788 -0.05721239382370566 255 255 255 255 
-0.04285686729810378 -0.406218804604897 -0.04285475661523355 255 255 255 255 
-0.02042393702454149 -0.04896263405297309 0.05843715309006849 255 255 255 255 
-0.03022355096960378 0.3420880316652145 -0.1626747539151217 255 255 255 255 
0.09317039577966292 0.2953408006020599 -0.126728353889816 255 255 255 255 
-0.1973627158360896 0.3815752188955066 0.11472459206368 255 255 255 255 
-0.09112831522783066 0.2734547782832785 0.09710403231333206 255 255 255 255 
-0.3486579164036974 0.4505150993023506 0.1017306959435897 255 255 255 255 
-0.07094942032640716 -0.571412118066735 -0.03679734158347821 255 255 255 255 
-0.1677981737704262 -0.2185547088711768 0.1205554058564427 255 255 255 255 
-0.3363915619481744 0.4234449070690504 0.2165052244872631 255 255 255 255 
-0.07658140032102141 0.2800096430325983 -0.1443007132289876 255 255 255 255 
0.1046272413736361 0.1644243483402251 -0.09515637696151713 255 255 255 255 
-0.00567397092787935 0.09516530118601176 -0.08002853437928957 255 255 255 255 
0.04700600727208747 0.1088148346058223 -0.06589214850424605 255 255 255 255 
0.04571281045766221 0.473579084669402 -0.06567468623888492 255 255 255 255 
-0.1971721285120719 -0.1997629648764365 0.1488349602319877 255 255 255 255 
-0.1901770542150393 -0.6887933786627911 -0.09787399921690898 255 255 255 255 
-0.1648354460338665 0.07472579962618817 0.1112560088687264 255 255 255 255 
0.06416587115444138 0.1185457012054169 -0.06456499429028288 255 255 255 255 
-0.1885090846652745 -0.1157634962074582 0.1382712311511661 255 255 255 255 
-0.1921317293144401 0.6172035101904622 0.1670939736639241 255 255 255 255 
-0.00345639433296798 -0.1584701334570189 -0.03449137863490449 255 255 255 255 
-0.1850056591214259 -0.211275098498101 0.01401573853322388 255 255 255 255 
-0.04529906351478556 -0.2051405812595675 0.04529566401845399 255 255 255 255 
-0.2640787009008002 -0.3711576858698666 0.1315510477975507 255 255 255 255 
-0.08652447127575681 0.6072518052128032 -0.119548947105055 255 255 255 255 
-0.3511572006433489 0.4392787285363856 0.1603634704694743 255 255 255 255 
0.08978528285851649 0.25285081524403 -0.1183384232023888 255 255 255 255 
-0.3346317277290895 0.4728435745401752 0.05516474195342577 255 255 255 255 
0.01760414976135049 0.1792661668385757 -0.1270680331298278 255 255 255 255 
-0.02845100493694255 0.1761094524089525 0.07495880170926535 255 255 255 255 
-0.165645202424517 -0.3981042092952359 -0.04629922180248534 255 255 255 255 
-0.2786265457365545 0.02148328119548945 -0.01430592481023684 255 255 255 255 
-0.1481684212543648 -0.04312412195166161 -0.0005856221889914029 255 255 255 255 
-0.1388024527306557 0.01953229584506345 0.06903569177609648 255 255 255 255 
0.08822034068552262 0.3441326481923229 -0.1348969140744926 255 255 255 255 
-0.2549618130253404 0.4913563712399785 -0.07657149888665579 255 255 255 255 
0.01470100245399214 0.2838436391285876 -0.1105734140853752 255 255 255 255 
0.1048134473826172 0.1871692284829046 -0.09648797218833761 255 255 255 255 
-0.0744217608716965 0.1882495628994215 0.09746651223788638 255 255 255 255 
0.05531683801881574 0.3930702620744546 -0.04543702770594998 255 255 255 255 
-0.04581774396696239 -0.4602875826169287 -0.07933759894247017 255 255 255 255 
-0.1168877956542724 0.05005721728419238 -0.1386951607899415 255 255 255 255 
-0.1407999344198302 -0.6729711259994732 -0.1637294961982934 255 255 255 255 
-0.279414666400871 0.4456333043051449 -0.03426668968035351 255 255 255 255 
