ply
format ascii 1.0
comment VCGLIB generated
element vertex 622
property double x
property double y
property double z
property uchar red
property uchar green
property uchar blue
property uchar alpha
element face 0
property list uchar int vertex_indices
end_header
-0.05404116854172504 0.1286977686233127 0.09222348489465462 255 255 255 255 
-0.2244294344967875 0.09580156279445172 -0.09441005302598421 255 255 255 255 
-0.2657270030720019 -0.09795021642291724 0.003715346555327449 255 255 255 255 
0.03914872564930587 0.4411431099847681 -0.01755914035724975 255 255 255 255 
-0.1702632044135101 -0.279108597426105 0.1111088321825925 255 255 255 255 
-0.2555112276269839 0.4996179065802699 -0.07460253550703558 255 255 255 255 
-0.2506938069003235 -0.650240688722697 -0.01995132961491236 255 255 255 255 
-0.001272298225752368 0.01368053614852723 0.06139293814933535 255 255 255 255 
-0.2553751692644589 0.2787720633243486 0.1426273614141903 255 255 255 255 
-0.2010541509671355 0.4709604049497803 -0.113369342361401 255 255 255 255 
-0.04236822784948146 -0.2605267035504329 -0.08993319017750608 255 255 255 255 
-0.2748767147141306 0.08948116898167853 -0.02910724468596779 255 255 255 255 
-0.09051031350184374 -0.43063142218036 -0.003291497538193112 255 255 255 255 
-0.2403854443936026 0.4919132377568139 0.2539937258505355 255 255 255 255 
-0.2798763571365773 0.1154910266785558 0.02355293946516152 255 255 255 255 
0.06808483883946488 0.3969360538516761 -0.1949122879719456 255 255 255 255 
-0.2726127121709088 0.5344458568384722 -0.04305840660133537 255 255 255 255 
0.04728425917035178 0.1792950661618321 0.06379027941362179 255 255 255 255 
-0.103453794734333 0.3230624932720241 0.1035911935955659 255 255 255 255 
-0.2947626640091555 -0.350577706055501 0.08437777973316732 255 255 255 255 
-0.1443700955377815 0.6664748869802702 0.07408394543764345 255 255 255 255 
-0.2714946197454871 0.1668570356706418 0.02824288515224194 255 255 255 255 
-0.1061803879827718 -0.09968501310255275 -0.09360439055099791 255 255 255 255 
0.04176154168033684 0.08846853063309833 -0.05218320526778913 255 255 255 255 
-0.01362939581014269 0.706268826404471 -0.009744988238911364 255 255 255 255 
-0.2830879827798432 -0.6861122913179196 0.14059651185392 255 255 255 255 
-0.2756060186691878 -0.5766985718442901 0.01802588764800354 255 255 255 255 
0.07181975174289526 0.4321751747694592 -0.1277893913583075 255 255 255 255 
-0.242746239325988 0.4537770164129558 0.09766000518533827 255 255 255 255 
-0.1637721364210456 0.01398063227238864 -0.09446262597697316 255 255 255 255 
-0.08857597499815718 -0.6403841339156033 -0.05060195946379092 255 255 255 255 
-0.2534708519267821 -0.1761766723477348 0.008502191936597944 255 255 255 255 
-0.2008025692614819 -0.6011381003948835 0.01578592481661713 255 255 255 255 
-0.2522857208224455 -0.5188815962944638 -0.009409704270859423 255 255 255 255 
-0.1911601629867557 -0.6652111222480376 -0.0885837357332884 255 255 255 255 
-0.1853346282952948 -0.4282420099899767 0.02501148090442985 255 255 255 255 
-0.07388358825079658 0.04943103651908669 0.08467916053530777 255 255 255 255 
-0.2580554464114684 0.3258529408708624 0.0005128777451881003 255 255 255 255 
-0.2114995508273488 0.3345636364917228 -0.09381148982793475 255 255 255 255 
-0.3197093527596055 0.5126432228732118 0.1279365869491026 255 255 255 255 
0.02963779559799583 0.0802995754334892 0.0443743285796743 255 255 255 255 
0.00682148429681629 0.5379100494214658 -0.1364164097981945 255 255 255 255 
-0.07500639077129242 0.4094184971931611 -0.1664574096737596 255 255 255 255 
-0.2607533886821216 0.325451340983136 0.0115031182990517 255 255 255 255 
-0.2979268362824784 0.5452945997301643 0.06864401514863476 255 255 255 255 
0.06118764644473869 0.3559653346798216 0.009056283789005722 255 255 255 255 
-0.01498490535310615 0.4177167297631297 0.06544624769909063 255 255 255 255 
-0.0972232757662306 -0.609011733617953 -0.01858194690311085 255 255 255 255 
-0.2895470026171153 -0.6214972618795018 0.03277051929374076 255 255 255 255 
-0.2450613468903161 -0.609395500046798 -0.01590161629099772 255 255 255 255 
-0.07433144139211156 -0.5296989928990219 -0.01479787828317318 255 255 255 255 
-0.3452443152313022 0.4375706243469548 0.123535621252991 255 255 255 255 
0.03773003194850483 0.2605734536140247 -0.04220492390358471 255 255 255 255 
-0.05485128863579973 0.4532090260830175 0.05364479463873099 255 255 255 255 
-0.2163360144620371 0.3180726131694487 0.1412037763124874 255 255 255 255 
0.008736788894988131 0.2988588192706279 0.07178049817539545 255 255 255 255 
-0.02933555459086767 0.09029631186905465 0.08093824957586143 255 255 255 255 
-0.1444851643853539 -0.3320363736489329 -0.1030358424065674 255 255 255 255 
-0.05503294096463773 0.06706857271706251 0.08698141578624473 255 255 255 255 
-0.1411543745600883 0.7181613295668532 -0.08398460861865983 255 255 255 255 
-0.2591484524619326 0.4248842099006767 -0.06670235464086995 255 255 255 255 
-0.2580668330429843 0.3889007934359777 -0.02561253675381621 255 255 255 255 
-0.1520253028148986 0.555375084183484 0.08017007973916994 255 255 255 255 
-0.05141859320978413 0.4953381873627198 0.009153580979164801 255 255 255 255 
-0.2078652260571272 -0.6221840089116952 0.01347645564975559 255 255 255 255 
-0.170785224006976 0.02456650554132955 0.1100612904196814 255 255 255 255 
-0.2405726658134794 -0.6763021653776006 0.1497942482622758 255 255 255 255 
-0.2206649265365691 -0.5374335305225578 0.1636022691354924 255 255 255 255 
-0.2897738018074536 -0.1191855289934908 0.08656385358694658 255 255 255 255 
-0.1465599612553054 0.5581058621413373 0.1339352550391631 255 255 255 255 
-0.1011256679384215 -0.6589851375020588 -0.1151341228429847 255 255 255 255 
-0.1039149651815871 -0.0394321475753303 -0.09373539835796474 255 255 255 255 
-0.1075615936682753 -0.1268999502830993 -0.09552990609591389 255 255 255 255 
-0.1399581493818049 -0.452299841734687 -0.02445838473038094 255 255 255 255 
0.0867454828410827 0.2565210982192733 -0.2061686344968535 255 255 255 255 
0.08042025616035305 0.1741651483358612 -0.0417896193391977 255 255 255 255 
-0.1566613971487804 0.3522146117184901 -0.1246906653974397 255 255 255 255 
-0.03594909966932461 0.315274825744526 0.08170316690821784 255 255 255 255 
-0.007324465278043926 -0.01176532746625691 -0.08078580728896416 255 255 255 255 
-0.07403657795726695 -0.5902892793614867 -0.026600367816577 255 255 255 255 
-0.2581283919283912 -0.07979209349161515 0.1293237901863049 255 255 255 255 
-0.04508228384775237 -0.4548594914658648 -0.04083060670491932 255 255 255 255 
-0.02475346077691854 0.02881510036414979 0.07913341653047609 255 255 255 255 
-0.2806204569240116 0.1106783070238635 0.03434900151391608 255 255 255 255 
-0.2388666061977109 -0.5458529899299014 0.1524465464841813 255 255 255 255 
-0.04863780365565425 -0.5028061009887324 -0.05781797667692133 255 255 255 255 
-0.1807103767843738 -0.6222843417281415 -0.0720201265426474 255 255 255 255 
-0.1774362498268589 0.6745823250216736 -0.02427729898541685 255 255 255 255 
-0.1877325490096826 -0.1973540549122633 0.1443255124750274 255 255 255 255 
-0.2601823581541715 -0.2867928342741544 0.02467641874091242 255 255 255 255 
-0.1290187161276138 -0.6618736799551838 -0.1507144703260846 255 255 255 255 
-0.2405001106332431 0.5524009172736567 0.1693882156768612 255 255 255 255 
-0.07387433755470453 -0.5571782931654137 -0.1256519859393156 255 255 255 255 
0.04906057371059491 0.4578544897081404 -0.1793304408898859 255 255 255 255 
0.01669138427679424 0.01036098200246845 -0.0424472938100536 255 255 255 255 
-0.165859733075937 0.318312161786128 -0.1137000960307025 255 255 255 255 
-0.007620899175455218 0.2674058199169121 0.1359578031866488 255 255 255 255 
-0.1755479502132176 -0.008551283418648756 -0.06347878282304088 255 255 255 255 
-0.1419271703665973 -0.1259346812704992 -0.05807950429793332 255 255 255 255 
-0.2409510366994941 0.2094449695140679 -0.03007451920563962 255 255 255 255 
-0.1165296537787269 0.6283946301366006 0.05796647332378414 255 255 255 255 
-0.2071214826253128 -0.6530193336602933 0.06006848224454957 255 255 255 255 
-0.1280149939980071 -0.6367745208154367 -0.01039497045304344 255 255 255 255 
-0.1758742380508568 -0.2316217310682882 0.02713050084171114 255 255 255 255 
-0.09981114876687514 0.09487497107300116 -0.1419338341149037 255 255 255 255 
-0.2817807649283203 -0.5298798101449506 0.1221708417238541 255 255 255 255 
-0.2936587848891364 0.4877811258735527 0.2675916825505237 255 255 255 255 
-0.01489624648719596 0.1809060582865702 0.07974395721932709 255 255 255 255 
-0.04299270606425886 0.4532119904891088 -0.1748019649015608 255 255 255 255 
-0.189274004091084 -0.688187503739091 -0.07144936069309124 255 255 255 255 
-0.1650009862054855 -0.4745359918329876 -0.1304563101768327 255 255 255 255 
-0.150388813502571 0.6933416510193265 0.03575112047935394 255 255 255 255 
-0.09540315091888274 0.3721050908161015 0.1131658015333962 255 255 255 255 
-0.2685503571061131 0.5365539327613283 0.05883519081582676 255 255 255 255 
0.009258247372889279 -0.08062979474960935 -0.0246735878547324 255 255 255 255 
-0.1535529498371475 0.1850423659321306 0.1265109303694431 255 255 255 255 
-0.1738743910202004 0.5964900707633958 -0.1022729902553423 255 255 255 255 
-0.2348301128877201 -0.5167938277028076 -0.01239455956151201 255 255 255 255 
-0.142867260082213 -0.2461637152487133 -0.07313110678722494 255 255 255 255 
-0.2270919174815915 0.3881193982924425 -0.09902423715165676 255 255 255 255 
-0.2822413265991084 0.06094395594306916 0.001536475157155616 255 255 255 255 
-0.1306451647828769 -0.6946828629126349 -0.02982721605289135 255 255 255 255 
-0.0889583222125699 0.402652936646147 0.1067935463226378 255 255 255 255 
-0.198969352337353 -0.1759015124973082 -0.006097137115515437 255 255 255 255 
-0.09275371184564123 0.6760908070133901 -0.1078673558154268 255 255 255 255 
-0.2549109305759499 -0.198986241525632 0.01490838503318734 255 255 255 255 
0.005741523072343399 -0.08469022424127558 0.009339533823365345 255 255 255 255 
-0.2173343859641456 0.2836192094722039 -0.06172357582575506 255 255 255 255 
-0.2147422411389875 0.3506551994449116 -0.09685772670193131 255 255 255 255 
-0.2311341755606861 0.230869910492781 0.1669749487278189 255 255 255 255 
-0.233705929669825 -0.7068297022236072 0.07642546128145539 255 255 255 255 
-0.06457539349734241 -0.2530836308325162 0.04477186683508012 255 255 255 255 
0.03544204791638075 0.3369175508387603 -0.06421805949278375 255 255 255 255 
-0.286864107673912 0.02213615649012825 0.05055243742588504 255 255 255 255 
-0.1517381604898311 0.6364971087771376 0.06531559725735657 255 255 255 255 
-0.03928952222673916 0.6065723776473169 0.0756541077439369 255 255 255 255 
-0.1668707174518495 -0.3149578030047565 0.08543017701069466 255 255 255 255 
-0.2228789411413711 0.4483432199478253 -0.1055679003771771 255 255 255 255 
-0.2228215120112012 -0.6491416730619036 0.1237275894893597 255 255 255 255 
-0.2615449956728292 0.2020607825784043 0.04469985726045834 255 255 255 255 
0.03456961618915216 0.1171893115757591 0.05968897904620913 255 255 255 255 
-0.3070274476972279 0.4826206677254147 -0.00536330466894751 255 255 255 255 
-0.04794650751674601 0.5922426704941588 -0.03478909911596536 255 255 255 255 
0.007335241030102168 0.330996103425446 -0.1885184822172349 255 255 255 255 
-0.1877514267558346 -0.5899387075081365 -0.06262965630638155 255 255 255 255 
-0.1190628987093221 -0.4993206624188629 -0.01446412814686525 255 255 255 255 
-0.1671070880849199 -0.6495472652531828 -0.06265450475980539 255 255 255 255 
0.1082894710791003 0.191898575996631 -0.1135117103570424 255 255 255 255 
0.003681045281722427 0.2516277749660498 -0.1433708462242029 255 255 255 255 
0.004755860808510282 0.07587170277248712 -0.06233903095059144 255 255 255 255 
-0.162379356555022 -0.1521913002704611 0.02031163692415244 255 255 255 255 
-0.1453157611827344 0.5660132937510013 0.1233224226189702 255 255 255 255 
-0.2425405461076038 0.3637015064981893 0.1215180917828524 255 255 255 255 
0.1019928626980355 0.2815958957100447 -0.1365123564336283 255 255 255 255 
-0.2340927060266297 -0.7106631085641527 0.01506245797804348 255 255 255 255 
-0.09192492078304761 -0.1008794420530428 0.05477601473521429 255 255 255 255 
-0.1837904327345503 0.6352832484974256 0.08132814070919955 255 255 255 255 
-0.1246390301922341 0.7075484159904901 -0.09893189477286522 255 255 255 255 
0.01705769603777365 0.03115344308260802 0.004402868430717218 255 255 255 255 
-0.289097276761634 -0.0953165352248028 0.0517364568990021 255 255 255 255 
-0.2861032872505037 -0.7514759280537154 0.168727256964954 255 255 255 255 
-0.1587960481481545 0.5479823717359266 0.1732053004579794 255 255 255 255 
-0.06188179289947628 -0.4414917164194344 0.006972918682599723 255 255 255 255 
-0.004049109819470944 0.5404177995891263 -0.1368017923635689 255 255 255 255 
0.0002902632197074161 -0.02412535461675559 0.04504777329982078 255 255 255 255 
-0.2051808364134134 -0.6698144075801098 0.04155207775902487 255 255 255 255 
-0.2146044404781853 -0.2674897120613751 0.1654354858046324 255 255 255 255 
-0.09387827763056011 -0.1484343420597638 0.04160940332854145 255 255 255 255 
-0.2813204057799057 -0.2961229762894478 0.1102269805998508 255 255 255 255 
-0.2462063400114776 0.4472674271316428 0.1052772379807923 255 255 255 255 
-0.04981208690417734 0.4625490871539841 -0.1721849468142008 255 255 255 255 
-0.2547490022468382 0.3818900810955603 0.04957873664527176 255 255 255 255 
-0.1756639753456949 -0.5305535934692585 0.05161405151366862 255 255 255 255 
-0.261223385153069 0.3339160764480639 0.008662351376690108 255 255 255 255 
-0.06696917403500123 0.7563111952306009 -0.0697339689582375 255 255 255 255 
-0.1481682799685551 -0.245144448871675 -0.06533541589145478 255 255 255 255 
-0.2782219465962106 -0.2331519545460898 0.1142221810057918 255 255 255 255 
-0.2827891166389857 -0.7029275431784771 0.1613250821786841 255 255 255 255 
-0.1448479900971386 0.6314139110667643 0.04505765014890148 255 255 255 255 
0.02547668007356755 0.1688468340636564 0.06158644931579756 255 255 255 255 
-0.2549391075620988 0.4236625533678511 0.2331498173332457 255 255 255 255 
-0.1204723630684609 0.7375850782567387 0.06325614374659644 255 255 255 255 
-0.04003870110119501 0.7366473664842171 -0.06488216120039264 255 255 255 255 
-0.2936141145675088 -0.2916607620780836 0.09204252370129916 255 255 255 255 
-0.2586931430490161 -0.1065990731979933 -0.003685512637032114 255 255 255 255 
-0.03895913435284452 0.246906742264957 0.05753094324047621 255 255 255 255 
0.07278117248087915 0.1494578100171154 -0.003661138474914194 255 255 255 255 
-0.1794448827308346 0.5672856463764846 0.08492427260018928 255 255 255 255 
-0.1015540336507965 0.7120736023047933 0.07182283378499665 255 255 255 255 
-0.2646639959013339 0.3946018912768015 -0.02847227401016405 255 255 255 255 
-0.1874977075265853 0.6326804231524917 0.09892475029523226 255 255 255 255 
-0.1567086289855543 0.1346090788965888 0.1198689061086104 255 255 255 255 
-0.1210919044330091 -0.2262582711978338 -0.09421033875400221 255 255 255 255 
-0.1552046147152744 -0.6570926636133541 -0.182706962065779 255 255 255 255 
-0.05441987681691814 -0.4182452758909638 0.00332908823434523 255 255 255 255 
-0.07083814004332953 0.06958054041249544 0.09185433350522569 255 255 255 255 
-0.2339093580636852 0.2244149814893784 0.09588050085206766 255 255 255 255 
-0.2132854940699785 -0.6885946295315153 0.0789238038393168 255 255 255 255 
-0.2061060166395672 -0.01310324639286174 0.1379150837720731 255 255 255 255 
-0.1660281954380149 0.7082864655609852 -0.0275159375699827 255 255 255 255 
0.006680240404327836 -0.05911582693942406 0.02306779901669425 255 255 255 255 
0.03768539869355254 0.4535242761732763 -0.0326225695985575 255 255 255 255 
-0.247771129449578 -0.5509540852198916 -0.01271675835362885 255 255 255 255 
-0.1536385269290771 -0.3338464254223741 -0.08946862519544997 255 255 255 255 
-0.03807244958575126 0.5273694056904616 0.01141880791009943 255 255 255 255 
-0.1843673422911953 0.2370955328585186 -0.07815489859413853 255 255 255 255 
-0.06634687327838704 0.1445379694833297 0.104023718661793 255 255 255 255 
-0.1994542367984132 -0.6750469571790936 -0.1322399215293201 255 255 255 255 
-0.2181562932608079 0.384707725338064 -0.1051379621278934 255 255 255 255 
-0.1774125031649362 0.3509070361877854 -0.1158275270782093 255 255 255 255 
-0.2380835866329273 0.4766107094757468 0.2545568781036698 255 255 255 255 
-0.2781353826838756 0.1409971012735913 0.01391976111619349 255 255 255 255 
-0.1469341486169311 0.003105285284727973 -0.09430511932230981 255 255 255 255 
-0.1516132781721019 0.748259314208779 -0.03122940537679022 255 255 255 255 
-0.2865370434033671 -0.009043970622135675 0.06330065462545312 255 255 255 255 
-0.03762636977302684 0.3058285819153317 0.07542590523453523 255 255 255 255 
0.08848490394566966 0.1887511480343306 -0.1521087130072327 255 255 255 255 
-0.03438543655710942 -0.02749550502183698 0.07476759499751777 255 255 255 255 
-0.2317915100441829 0.2231291049396387 0.1430420662308782 255 255 255 255 
-0.1924352374478486 -0.3463868423691288 0.1303846860597131 255 255 255 255 
-0.220938430755898 0.5419449544968851 0.2202425677962018 255 255 255 255 
-0.220247637601544 0.5692848173566813 -0.06380557851555643 255 255 255 255 
-0.08482557051193 -0.6610625445761205 -0.03171792588755991 255 255 255 255 
-0.1835607761826373 -0.1870204033911531 0.007480588577628139 255 255 255 255 
-0.01079549943577431 0.7077343018083248 0.01276726234697942 255 255 255 255 
-0.008525462202429182 0.202368435335208 -0.07980947147496291 255 255 255 255 
-0.003740195213658899 0.3676796643576196 0.09131643368495049 255 255 255 255 
-0.277711073481655 -0.7537859973164458 0.1618662853792558 255 255 255 255 
-0.179652004383322 -0.02572293169785619 0.1220787762897401 255 255 255 255 
-0.2707290381764227 -0.2657797896259962 0.0418104828915429 255 255 255 255 
-0.2364750844090316 0.4639452190394164 0.09154007994748001 255 255 255 255 
-0.2907904565157675 -0.2478909443024606 0.06070827096983022 255 255 255 255 
-0.307693413093614 0.3924286311022057 0.2074742353841827 255 255 255 255 
-0.1422303683594156 0.0972025907194608 -0.1342397322970079 255 255 255 255 
-0.1751759740977512 0.6806369355983324 -0.0158859866433879 255 255 255 255 
-0.2930915294914483 -0.4263084402358185 0.03909314421332342 255 255 255 255 
-0.1840932599983235 -0.6442031416148999 -0.1341476963682353 255 255 255 255 
0.03573831857253323 0.4492139090945092 -0.02080969296934137 255 255 255 255 
-0.06062931162000516 0.6356870107871082 -0.09518358552562564 255 255 255 255 
-0.2857412223499277 -0.2536949508168538 0.105722031208085 255 255 255 255 
-0.09173154844082108 -0.439464605441511 -0.1498620554576842 255 255 255 255 
-0.1549109358785176 -0.03233747966305082 -0.020578577753271 255 255 255 255 
-0.09779196918591948 -0.168943963773373 0.04151029912250076 255 255 255 255 
-0.1511212283666268 -0.3865060138554268 -0.1155967406132338 255 255 255 255 
-0.1952569138789936 -0.5353472538272089 0.1228932928816077 255 255 255 255 
-0.01173471697392089 0.1562069558627688 0.06588896979508227 255 255 255 255 
-0.2663519642357367 0.1926636779465968 0.0317352186891544 255 255 255 255 
-0.1228815187717964 -0.08786521986961943 -0.08013846049266032 255 255 255 255 
-0.03962328797342281 -0.3857175092786667 -0.02455355610188415 255 255 255 255 
-0.07435396067657231 0.3923724208725004 0.1050480177674313 255 255 255 255 
-0.1415298180010436 -0.02732460772432251 -0.06168651781880215 255 255 255 255 
-0.02316450794936234 0.09973002744164901 -0.1071697741368553 255 255 255 255 
-0.2784407679770216 -0.7547443079364652 0.1516350526576382 255 255 255 255 
-0.00273084905819399 0.4988284919480876 -0.01818378802436176 255 255 255 255 
-0.1807172909354353 0.614478218182448 0.1766396772517641 255 255 255 255 
-0.164820242853573 0.7028271121767599 -0.06162475477879894 255 255 255 255 
-0.02570204684891025 0.2217346399956934 0.1395285476284195 255 255 255 255 
-0.02018648043727576 0.07239221786753619 -0.1014489604121341 255 255 255 255 
-0.1703521627639026 -0.5835067135565704 0.08259245634381232 255 255 255 255 
-0.3033032296144572 0.4269316648345425 0.04898770221200797 255 255 255 255 
-0.2207677684845832 -0.01561325819547111 -0.06719757411648869 255 255 255 255 
-0.07777452886132197 0.003675587524677478 -0.1211427358812811 255 255 255 255 
-0.2613078250108684 -0.59542884446304 0.00161310797207607 255 255 255 255 
-0.2857805223056601 0.01969768167676363 0.06321902499913096 255 255 255 255 
-0.1776786328776531 -0.5221103506750335 0.04499318323114243 255 255 255 255 
-0.2597488125210547 0.5278668391186032 0.06141118770640726 255 255 255 255 
-0.1540341134278806 0.4425842538893792 -0.1351720335047828 255 255 255 255 
-0.008948923093901922 0.358727076083694 -0.1557105104927814 255 255 255 255 
0.01929316461051325 0.1678963752608423 -0.09164963229467291 255 255 255 255 
0.00441251458937255 -0.03496614833702887 -0.05843298418251765 255 255 255 255 
-0.2610356450396303 0.5367494993389257 0.1602500881161442 255 255 255 255 
-0.3091194186192576 0.5353444187805219 0.01530642649112038 255 255 255 255 
-0.06187497838965508 0.7445007013043817 -0.07920160118180715 255 255 255 255 
-0.2242479446707047 0.5158793705446668 -0.09404368871262947 255 255 255 255 
-0.1747397685411216 -0.409065449164394 0.09684648495157273 255 255 255 255 
-0.1122576443165598 0.09402127044540232 -0.1415305756676433 255 255 255 255 
0.03773362052348813 0.2921186098086001 -0.04875355285868779 255 255 255 255 
0.04924744698521266 0.1987374814654133 -0.06122008157629177 255 255 255 255 
-0.1968203246176054 0.4634669514804103 -0.1173710216234055 255 255 255 255 
-0.2639236059152918 0.3285401688034135 0.03228888928022926 255 255 255 255 
-0.05187776333176823 0.05455067896553913 0.0826136176114047 255 255 255 255 
-0.09246715175510066 0.5697346440852286 -0.1448884645267896 255 255 255 255 
-0.1839818234530124 0.6442279359990111 0.07589300520277399 255 255 255 255 
0.1003298692312309 0.1563633345962467 -0.06445879394967279 255 255 255 255 
-0.2419275037448554 0.4973322794460536 0.1695297964297509 255 255 255 255 
-0.006254632544414009 0.4530360465471794 0.02839454242705013 255 255 255 255 
-0.0243995284765712 0.1748835467293011 0.07312656944064935 255 255 255 255 
-0.160125073858489 -0.3947007812897984 -0.1021406310244374 255 255 255 255 
-0.003384632268454557 -0.1466007140787763 -0.03762762206943653 255 255 255 255 
-0.2696996305443934 -0.5216697900097993 0.1355283751228071 255 255 255 255 
-0.1187687794497636 -0.659980980631834 -0.1206651307027536 255 255 255 255 
-0.1273523184579974 0.560864712553883 -0.1365541320750919 255 255 255 255 
-0.02365961474850677 0.2793637392142492 -0.125452105347105 255 255 255 255 
-0.07079802654130916 0.7507514056082081 0.06175300469907055 255 255 255 255 
-0.1191333107822493 0.01242378904291008 0.05872822252711248 255 255 255 255 
-0.03287728807680992 0.6343734845689344 -0.03197703261893735 255 255 255 255 
-0.09215344694411404 -0.6517569128611072 -0.1037532392269545 255 255 255 255 
-0.2692919529851072 0.05049771526854157 -0.04043760531046789 255 255 255 255 
-0.2565961679118658 0.5253327458084462 0.2252831795274077 255 255 255 255 
-0.2257466926748396 0.460690798282857 0.08757408929309531 255 255 255 255 
-0.3395913355101823 0.4272326847191691 0.1432262562551276 255 255 255 255 
-0.1609989604255062 0.6919414151149096 -0.0774941455448408 255 255 255 255 
-0.04654583211040872 0.6417809065618202 0.08051765186542403 255 255 255 255 
-0.2447686517287669 -0.2532382532696702 0.01605005190746281 255 255 255 255 
-0.2969375335281068 0.389045085812618 0.1108064317072351 255 255 255 255 
-0.1500227778301715 0.6963846199829808 0.0930393833866747 255 255 255 255 
-0.0974577537750988 -0.6125723086211828 -0.1130712304966637 255 255 255 255 
-0.07475420154429351 -0.4790693883147421 -0.1364984767280712 255 255 255 255 
-0.1878610462579727 -0.2937858820787819 0.02612189297067199 255 255 255 255 
0.08084659676819503 0.392181505007713 -0.1430127581933814 255 255 255 255 
-0.0007841505209790051 0.3469368519723325 -0.1688407236158858 255 255 255 255 
-0.1444327357596628 0.6431035627488462 0.1224233031448059 255 255 255 255 
0.1056950635819621 0.2816245769552501 -0.1731814798808285 255 255 255 255 
-0.2116508581057469 -0.2090336686637945 0.001048133031720944 255 255 255 255 
-0.1968864800479964 0.09603919351548526 0.1171905799766711 255 255 255 255 
-0.04494717821484615 -0.4805911415023726 -0.04675962759607938 255 255 255 255 
-0.1057408882917702 0.2547755910668807 0.1032365446381722 255 255 255 255 
-0.2207535464941806 0.4258708292592481 -0.1076447174770067 255 255 255 255 
-0.1704469159401604 -0.5917559765801247 0.07337760160114838 255 255 255 255 
0.06069575266097517 0.38656613922053 -0.0112725467351191 255 255 255 255 
-0.004394771725559646 0.2424436825761904 0.08775573720537795 255 255 255 255 
-0.241213473147434 -0.6673244187254775 0.1477413170741144 255 255 255 255 
-0.09688557457737099 -0.2080045406490515 -0.1058508466786902 255 255 255 255 
-0.05532715415984273 -0.1929989729400239 -0.09747107834615712 255 255 255 255 
0.07261101630369834 0.1978779983410365 -0.06571685283014284 255 255 255 255 
-0.1462120487413182 0.7479113656253128 -0.0503002964268951 255 255 255 255 
-0.3199098408188604 -0.7399056076337505 0.1184443096883184 255 255 255 255 
-0.1682832432368907 0.5117198037830477 0.1632955533718351 255 255 255 255 
-0.1746404841710196 0.6909256537561865 -0.04301402965211874 255 255 255 255 
-0.09746183693507214 -0.6859217288421817 -0.03377703549136164 255 255 255 255 
-0.0628657596039804 0.0620568178600654 0.0872347386030534 255 255 255 255 
-0.2391357893264709 0.341790864924104 0.1441921053461931 255 255 255 255 
-0.1071029370789469 -0.3679688608004765 -0.1435503347152632 255 255 255 255 
-0.03271227114797528 0.254668066394271 -0.1120899006373531 255 255 255 255 
-0.1151837783583546 -0.3066712624292303 -0.1214488764261027 255 255 255 255 
-0.02702300893530446 -0.1538029403500948 0.03110716553354661 255 255 255 255 
-0.1992804828850957 0.08447505051603739 0.1209421251170861 255 255 255 255 
-0.1718967431475288 -0.3215259149089046 0.04254017330976488 255 255 255 255 
0.0505099201800208 0.2085353598238798 -0.1822791125288972 255 255 255 255 
-0.1391943690676091 -0.2612767794022139 -0.08351047237857906 255 255 255 255 
-0.1538568359875564 -0.02003656392717962 -0.03022044635457588 255 255 255 255 
0.01060351435448237 0.3177773073689616 -0.1922838166698945 255 255 255 255 
-0.2646769036106258 -0.4736543711135746 0.1393970418690986 255 255 255 255 
-0.3100451520996469 -0.6933829133906966 0.09454333718857624 255 255 255 255 
-0.2120386596197553 -0.06549782164413762 -0.04536331253629008 255 255 255 255 
0.04793841487692265 0.1403239990542134 -0.1028249623241983 255 255 255 255 
-0.01747565401157054 0.2330205400654822 -0.09670539000983533 255 255 255 255 
-0.03280176291480577 0.5749869933002136 -0.1157680276575543 255 255 255 255 
-0.0301900935437147 -0.2997470542101234 -0.03669294113632357 255 255 255 255 
-0.07339356175051193 -0.4046630865131111 -0.1385944915737563 255 255 255 255 
-0.1398424047199859 0.7233317747088036 0.04158721393521806 255 255 255 255 
-0.1091797995899462 0.3257422415480433 -0.1434280393948286 255 255 255 255 
-0.2302788320002822 0.347521622616544 -0.08052509879110482 255 255 255 255 
-0.2544382757853858 -0.1175657957346306 0.1343411636090975 255 255 255 255 
-0.3379271819951188 0.4424470142935912 0.09128582349927494 255 255 255 255 
-0.2174821886121396 -0.4757503294193562 0.1639620023019806 255 255 255 255 
-0.2981449333843883 0.5473181735630017 0.03875591657062699 255 255 255 255 
-0.3017628604131377 0.3954131066131487 0.106269943250054 255 255 255 255 
-0.03510798552803785 0.3786086842993532 -0.1752248962257737 255 255 255 255 
-0.260537731297635 0.0736071800639377 0.1129130337673934 255 255 255 255 
-0.2925941325744389 -0.6513028588208847 0.07493760651846948 255 255 255 255 
-0.06903648033379309 -0.5197404631380206 -0.03163532644432925 255 255 255 255 
-0.3022057253500354 0.5015866776852772 0.1216914895392811 255 255 255 255 
-0.08828227602586719 -0.5751139147974921 -0.1442817705033475 255 255 255 255 
-0.2753322620476023 0.384327309820383 0.1338381006370767 255 255 255 255 
-0.1649899193206409 -0.4367343025617348 -0.04903701841846092 255 255 255 255 
0.02607568230514109 0.2090751818648759 -0.07447185965378414 255 255 255 255 
-0.3062822940429417 0.3880766461433935 0.1663861444257161 255 255 255 255 
-0.2909547225192133 0.4499024833087504 -0.009026578433864476 255 255 255 255 
-0.2330490093760615 0.4251595195783252 -0.09743812407571167 255 255 255 255 
-0.2095974192609278 -0.2599628249152626 0.007686212025009108 255 255 255 255 
0.02778671710034274 0.3210014154666947 0.05305101349217246 255 255 255 255 
-0.2564380071061402 0.4281798134900506 0.1590426048194843 255 255 255 255 
-0.04818308441849646 0.6929482138240689 -0.08644084750653254 255 255 255 255 
-0.07440525955499261 0.3065771672199686 0.09134703956577103 255 255 255 255 
0.04350044203360613 0.1666132311319228 0.05335909955787421 255 255 255 255 
-0.2802076316094941 -0.3151887173079869 0.1197296554460079 255 255 255 255 
0.02478196104713774 0.1040882297412425 -0.04389179577586311 255 255 255 255 
0.02210868627786456 0.2973502795193657 -0.2061753702841047 255 255 255 255 
-0.2131411400904849 0.4903744498015369 0.159035440358865 255 255 255 255 
-0.1764290537351313 -0.06749382835813542 0.1238256238197089 255 255 255 255 
-0.2237999555936858 0.1577875107338128 0.1102962657334608 255 255 255 255 
-0.161770471734134 -0.2106022047094293 0.1110817471766463 255 255 255 255 
0.02431741906943881 0.06116924942285219 0.04265742302467941 255 255 255 255 
0.02609240933198295 0.44281682207813 0.01367069305664251 255 255 255 255 
-0.1734586019761767 -0.3590859955048158 0.04031938290422005 255 255 255 255 
-0.2710264790959077 0.1642675631041639 0.03759139957226709 255 255 255 255 
0.02158500255419645 0.2799349949487377 0.05224190480206362 255 255 255 255 
-0.04944168797526662 0.2754742747833363 -0.1388339465067264 255 255 255 255 
-0.2532966666335467 -0.6896533558704974 0.1568632516247674 255 255 255 255 
-0.1526495887966413 0.01950410078586519 0.08913695634375129 255 255 255 255 
-0.2832546161579682 -0.753570224190632 0.1091060394406181 255 255 255 255 
-0.3011397268412129 0.4846575405590298 0.2551583276785282 255 255 255 255 
-0.166187933658822 -0.3678747924675815 0.049037019007516 255 255 255 255 
-0.08502417622595487 -0.302538425017538 0.04153535641739357 255 255 255 255 
-0.03412921290445677 0.4629857767431461 -0.1770688637032647 255 255 255 255 
-0.2881537452485693 -0.4250735926983631 0.02855300119116809 255 255 255 255 
0.02754606650086243 0.5267560091153893 -0.1420112685427631 255 255 255 255 
-0.2115869920426271 0.5544623636758939 0.2255765686650996 255 255 255 255 
-0.2834227866522471 0.07167908224689692 0.03118354776656533 255 255 255 255 
-0.03228742730378091 0.2703668291329739 0.09225866649003116 255 255 255 255 
-0.1744277993368035 0.4473090052427257 0.1019225589910834 255 255 255 255 
-0.1142789391775044 0.531540008041676 0.03520385183951829 255 255 255 255 
-0.22184413257694 -0.7000634281868752 0.02493740484319196 255 255 255 255 
-0.1711369189818438 -0.6035670997446152 0.06867216885244512 255 255 255 255 
-0.08391271101477835 -0.6029335143582253 -0.1273154472356243 255 255 255 255 
-0.185848300281669 -0.468168163512467 0.1117616798280737 255 255 255 255 
-0.03750700074286339 0.759312566218725 0.02944855151323623 255 255 255 255 
-0.1704926998903825 -0.6592136312029541 -0.1788624373024718 255 255 255 255 
0.0791473888987216 0.1630773532800542 -0.1254086692424957 255 255 255 255 
-0.2531034644960423 0.5513429673106934 0.1922795458191791 255 255 255 255 
-0.1129224543416824 -0.6192982031730406 -0.02219587883521605 255 255 255 255 
-0.2161301004858172 0.5733822230279032 0.1927870770240588 255 255 255 255 
0.08889579849661337 0.2289685912255408 -0.1886710613288365 255 255 255 255 
-0.2164348948802854 0.06514264893875624 0.1264203137613055 255 255 255 255 
-0.2658007303650211 0.3097436815903774 0.09407274686079006 255 255 255 255 
-0.1814120386385739 0.6588941762367395 -0.04397107161075892 255 255 255 255 
-0.3521652689903043 0.4594303129500279 0.1062042704068463 255 255 255 255 
-0.2805271683277672 0.07797322642435205 -0.01364505042904444 255 255 255 255 
-0.08011689161623783 -0.6724696332204716 -0.07418681012012684 255 255 255 255 
-0.2036204600756929 0.5106949297639267 -0.1080536150556714 255 255 255 255 
-0.04873944871949613 -0.4256133387447008 -0.02471729453814709 255 255 255 255 
0.05401549911351183 0.3138673566748461 -0.226520122903199 255 255 255 255 
-0.1482371710425837 -0.240450921807494 -0.01021597506344335 255 255 255 255 
-0.01260666374943609 -0.1379812538691817 0.02439345473145628 255 255 255 255 
-0.1072535184111383 -0.5119366372663101 -0.01327270587570642 255 255 255 255 
-0.1844586259743715 0.5738601069156013 0.08928344421957229 255 255 255 255 
-0.06041040720468747 -0.4108938337244177 0.01242863790845073 255 255 255 255 
-0.1090873765585562 0.3330109227413169 0.1094820041462002 255 255 255 255 
-0.256383551817166 -0.1176826976507552 -0.002781051636118618 255 255 255 255 
0.005162519397441657 0.5074721364811133 -0.1709762680352489 255 255 255 255 
-0.1969512117241684 -0.5933737763635034 0.01929491123281061 255 255 255 255 
-0.2419681430296017 -0.4226749340859232 0.1487090156972003 255 255 255 255 
0.006052013747730765 0.2736401095028849 0.05034802441159223 255 255 255 255 
-0.1574707204401366 -0.5211754225393334 -0.03112966157830903 255 255 255 255 
-0.1722127023052662 -0.6932438865620342 -0.08475713695582668 255 255 255 255 
-0.2555698689039748 -0.6701121270229631 -0.009132280408630905 255 255 255 255 
-0.03953130312866086 -0.1218928655101307 0.05967564954112317 255 255 255 255 
-0.09890042913616137 -0.4324170491462043 -0.151152154023291 255 255 255 255 
-0.2635981800670937 -0.03655551618141361 0.1189844017731695 255 255 255 255 
-0.05455033041783194 -0.5046688225365953 -0.03070118628459634 255 255 255 255 
0.03680193845000564 0.1329455539104354 -0.08494611533836267 255 255 255 255 
-0.1474563567123835 -0.2184066302379646 -0.05923946033906694 255 255 255 255 
-0.2431672233518057 -0.1237121281889907 0.1401611114102361 255 255 255 255 
-0.1680239250652812 -0.3701848173943307 -0.06129939867618914 255 255 255 255 
-0.2482118473296562 0.3040359068694613 -0.007737877692897913 255 255 255 255 
-0.1389829840368791 -0.169677239042635 0.0003848621932971578 255 255 255 255 
-0.09959949420860451 -0.3740156464532067 -0.1454099896780183 255 255 255 255 
-0.260159155973079 0.1708167186481456 -0.0201529836378162 255 255 255 255 
-0.003028686960595079 -0.08975751843458078 0.02415602454359796 255 255 255 255 
-0.06191650607318534 -0.5699241652116854 -0.07052890242831707 255 255 255 255 
-0.1032707876278672 -0.5207978192291661 -0.01393570229898242 255 255 255 255 
-0.1478482801927476 0.6318196572022217 -0.1037050838676085 255 255 255 255 
-0.2242525085303699 0.08440318776884814 -0.09456290710361792 255 255 255 255 
-0.2920917957826715 -0.342817487854189 0.04892798248861172 255 255 255 255 
-0.07618655811264824 0.6259945434677887 0.08382890870503165 255 255 255 255 
-0.2121883394175265 0.5342551377944014 0.03942498309795564 255 255 255 255 
-0.05499700915251145 0.438710300874914 0.07056660883355584 255 255 255 255 
-0.3072484136081939 0.3904229029429576 0.1427729870662207 255 255 255 255 
0.01267721906176005 0.1758943734009149 0.08084225095624488 255 255 255 255 
-0.2775912493924717 -0.325105104082383 0.02573444154238737 255 255 255 255 
-0.2977137626184475 0.5050049090818178 0.2147437297090668 255 255 255 255 
-0.01154086823336324 0.3348583920031939 0.1142418019863611 255 255 255 255 
-0.09980468087883193 0.2330802488449454 0.1028291847355842 255 255 255 255 
-0.02337565189579609 0.2566896211621522 -0.1060977661996622 255 255 255 255 
0.03854026973655478 0.2158038108754624 -0.08026756843640298 255 255 255 255 
-0.1708981546126461 0.3313090569257415 0.1331725256601681 255 255 255 255 
-0.3438184684879182 0.4323285213151339 0.137357037586594 255 255 255 255 
-0.04751818502928876 0.01883899887321247 -0.1145064386463849 255 255 255 255 
-0.08157862368135944 -0.3383727818498958 0.0381531880493836 255 255 255 255 
-0.1474448495875346 -0.2043779840093102 -0.01165729846953104 255 255 255 255 
0.02997975962779482 0.4324414859794202 0.01780511797004007 255 255 255 255 
-0.01485175548734601 0.2055332638631708 -0.09035932916843473 255 255 255 255 
0.04241184304005496 0.2028753280552629 0.07453116019933456 255 255 255 255 
0.001845471544596735 0.324745138536677 0.08821970602758777 255 255 255 255 
-0.2132808793012494 -0.3015511778500638 0.1576049953787779 255 255 255 255 
0.03902465089538439 0.37884565138523 0.05176176084440987 255 255 255 255 
-0.2209477982538067 0.5257057971174963 -0.09326991900468271 255 255 255 255 
-0.1699187966631054 -0.3371976079609873 0.08528672903475384 255 255 255 255 
0.05897434751045567 0.207042229587937 -0.1793787852081299 255 255 255 255 
-0.1699317902711387 0.6598259272011803 0.0497364441383237 255 255 255 255 
-0.2670267946773294 -0.04247352334962272 -0.01117090511425736 255 255 255 255 
-0.1585845742869155 0.7344627688276149 -0.009019639740475103 255 255 255 255 
-0.1695007896770973 -0.1511332698209941 0.008382110614204933 255 255 255 255 
-0.2455349483496072 -0.0808362498603778 0.1360440631721817 255 255 255 255 
-0.2106895286464784 -0.1962794320848331 -0.002151559453416495 255 255 255 255 
-0.1796447800596261 -0.6070019999812654 -0.05158586187000372 255 255 255 255 
0.1030259309141818 0.2082489071129801 -0.1584370465809196 255 255 255 255 
-0.2655345409105955 -0.1702036766358986 0.133020941411491 255 255 255 255 
0.006227233827719305 0.2282593581460451 -0.132187467455445 255 255 255 255 
-0.05324797565488532 0.184971470001082 0.08569579169646367 255 255 255 255 
0.06366705680358262 0.1057211479637116 0.01876729204849347 255 255 255 255 
-0.1100401612041786 -0.6432583191327177 -0.1476975037206631 255 255 255 255 
-0.1669618528290719 -0.1075238042670295 0.1183433150969514 255 255 255 255 
-0.03258557653889275 -0.3289869737027548 -0.06203688370926812 255 255 255 255 
-0.2764109339276563 -0.7099815483486551 0.1745346274513934 255 255 255 255 
-0.05609061814744817 -0.4084812021458917 0.004448043801201025 255 255 255 255 
-0.185011937663431 -0.6466149114089124 -0.1016422414079029 255 255 255 255 
-0.1886977117662379 0.03682937203878463 0.1237881611890693 255 255 255 255 
-0.3169964297816706 0.5361561742966414 0.07864873095981549 255 255 255 255 
-0.1739240925027561 -0.580343925213225 -0.03820322162797483 255 255 255 255 
0.01246737165865289 0.1722961048267961 -0.0652531699126101 255 255 255 255 
-0.02495225293130704 0.4669076497640892 -0.1798064925488462 255 255 255 255 
-0.2383023202581384 -0.7176197932617869 0.1173927583152173 255 255 255 255 
-0.1817578064272624 -0.6320929289578685 -0.1128827695321389 255 255 255 255 
-0.2963987044239903 -0.534367297235721 0.1015566756654421 255 255 255 255 
-0.1849426533038264 0.5092078403403585 -0.1159440664185298 255 255 255 255 
-0.1017136138339975 0.1684724493602245 -0.125250541195329 255 255 255 255 
-0.2309329155805445 0.4149500308486312 0.1157580448020965 255 255 255 255 
-0.1073353416440486 0.5904285040921321 -0.1317732641341208 255 255 255 255 
-0.0006037237198730141 0.3566253189664991 -0.1755645939285332 255 255 255 255 
-0.09470352441601727 -0.3251333871437362 -0.1341492346286481 255 255 255 255 
-0.2589017518347864 -0.4198344062526727 -0.0001468180695210726 255 255 255 255 
-0.2634081369298911 0.09833130069433144 -0.04994789866036174 255 255 255 255 
-0.03624093202572886 0.4111196525231176 0.08267556217213359 255 255 255 255 
-0.1606531122263726 -0.335699676226882 -0.04081800119770155 255 255 255 255 
-0.118266628654936 0.5912091986949213 0.0344118109981832 255 255 255 255 
-0.2603373684872367 0.4656210913464326 0.1517330801895238 255 255 255 255 
-0.2602664142343901 -0.2459807846655201 0.1413290490359732 255 255 255 255 
-0.04189804539331153 -0.1655316527202871 0.05131031367440849 255 255 255 255 
-0.01676441333304991 0.4441448309910602 -0.1824186517395966 255 255 255 255 
-0.2766386315548789 -0.02723946824621598 0.1008581527937209 255 255 255 255 
-0.1853678414789513 0.309900657645991 -0.09993360486217534 255 255 255 255 
0.01714285784211481 0.308669747066575 -0.09847161290034367 255 255 255 255 
0.05875523348320444 0.2440969731441277 0.009829041186385064 255 255 255 255 
-0.1522945026273828 -0.006895257889389463 0.09176116797768906 255 255 255 255 
0.09105865477023499 0.1979620896698122 -0.1603778135086443 255 255 255 255 
0.0413021368994247 0.4813225016098386 -0.06191200033081647 255 255 255 255 
-0.1731259333691109 -0.5622463124474302 0.06921428782437596 255 255 255 255 
0.03341958771423416 0.4635334734821937 -0.03360915389817146 255 255 255 255 
-0.2228302989619689 -0.5370059430631871 -0.01151640301176752 255 255 255 255 
-0.2505846116794581 0.103528643870874 0.1096994241663032 255 255 255 255 
0.09870473110858213 0.1484510041149652 -0.06830468585445151 255 255 255 255 
0.01093773681386367 0.2213164432167269 -0.1687625842202189 255 255 255 255 
-0.149111727125904 -0.40301430150198 -0.03171023279050928 255 255 255 255 
0.04874523599267339 0.3138593232947042 -0.03310002667626841 255 255 255 255 
-0.2467661564470666 0.3742758319335218 0.08795799535880486 255 255 255 255 
-0.03798448281543422 0.6052511375853638 -0.08482135002227618 255 255 255 255 
-0.1956039195687158 0.4467952400571353 0.1032992233733593 255 255 255 255 
0.05427146459387969 0.4901491061753973 -0.150748009360214 255 255 255 255 
-0.2037499716993881 -0.6411357674367771 0.135079927223363 255 255 255 255 
-0.1349466265676412 -0.2030063708433602 0.006461294664482711 255 255 255 255 
0.01677584782096366 0.122452553115135 -0.05042613060109331 255 255 255 255 
-0.1852511987572339 -0.5512155614990852 -0.1094958930334204 255 255 255 255 
-0.1888019871200578 -0.0956115012990698 -0.02763223197093518 255 255 255 255 
-0.02374013316678951 0.3427062659000364 0.08360730034458849 255 255 255 255 
-0.05166587122401115 -0.01619036057183984 0.08107114346395186 255 255 255 255 
-0.1436937370729333 -0.174549029713324 -0.006302004602441952 255 255 255 255 
0.007988359892490134 0.4070884793734957 -0.1932940284225009 255 255 255 255 
-0.2978197011633247 -0.4101695301356758 0.08117004858799019 255 255 255 255 
-0.05694061250121975 -0.07906774169602625 0.06737362550942538 255 255 255 255 
-0.2412927913580453 -0.5878191714434897 -0.01235221830141007 255 255 255 255 
-0.1010489401284134 -0.2605311708711927 -0.113468259783055 255 255 255 255 
-0.01292813794746806 0.6453547644813951 0.0406662137435334 255 255 255 255 
-0.02485032959205077 0.2459964388525671 0.1226321217835216 255 255 255 255 
-0.2659750543629648 0.1795520137149559 -0.0002463762797295103 255 255 255 255 
-0.1612827535901118 0.4955014265891785 0.06853252757694539 255 255 255 255 
-0.0728692133291709 0.6836114906860357 0.09210439383343422 255 255 255 255 
-0.1287911748112193 0.4959135793043465 0.06624319782922587 255 255 255 255 
-0.2295027408113388 0.2301114043284227 -0.03874957999839881 255 255 255 255 
0.03308157120657994 0.2681939763516046 0.06346112823451337 255 255 255 255 
-0.2541045127522871 -0.4560692169467019 0.1436060046587271 255 255 255 255 
-0.08675530319025426 -0.3898548239201169 -0.1439362921810284 255 255 255 255 
-0.08291330729656254 -0.3155796461494327 -0.1304110520050036 255 255 255 255 
-0.1798300826960083 0.67211917767608 0.119186297378234 255 255 255 255 
-0.2604796978110953 0.3530461239367537 0.007815032081399116 255 255 255 255 
-0.2298925651967117 -0.704832871607778 0.05098666082526745 255 255 255 255 
-0.2712181965745426 0.394424315281123 0.0790290521983858 255 255 255 255 
-0.1124798578041867 0.04318493821449779 0.0921229165323863 255 255 255 255 
-0.05226534929893158 0.1493289773097453 -0.1210440818218206 255 255 255 255 
-0.1952430719033488 0.1588984911122909 0.123863864484611 255 255 255 255 
-0.2797452584995601 -0.002348854317006974 -0.002278505140890788 255 255 255 255 
0.06275825192948986 0.4564929680648732 -0.1655574064822561 255 255 255 255 
-0.065068689933112 -0.5525182492451377 -0.05247007445761564 255 255 255 255 
-0.2104717393968639 0.1119368951668226 -0.1021064037136557 255 255 255 255 
-0.01955421484323893 -0.08831323493769309 0.04798699220343862 255 255 255 255 
-0.2201402379143455 -0.6061988466832724 0.1418576781599681 255 255 255 255 
-0.2364292926672028 -0.2685761692760478 0.01067861783017302 255 255 255 255 
-0.0656215010916473 -0.5825196812656924 -0.05360300665407313 255 255 255 255 
-0.114418155454869 -0.6556902144214447 -0.008388495354653329 255 255 255 255 
-0.1831379766354972 0.5012657471902963 0.1398495115961895 255 255 255 255 
-0.0884915202054256 0.4919508215322826 -0.160725205838994 255 255 255 255 
-0.2005241387584984 0.5941829230476663 0.1668692991481388 255 255 255 255 
-0.03218491674695026 -0.3015541897165547 -0.06978748841970928 255 255 255 255 
-0.0318274278786065 0.5889031509467739 -0.07937501438915608 255 255 255 255 
-0.264021175084203 0.3981495337283464 0.2022369274001838 255 255 255 255 
-0.05487667050684955 0.7725855526941401 -0.0163175826257628 255 255 255 255 
-0.02418860507456611 -0.2145375986323828 -0.06726105545496248 255 255 255 255 
-0.1987858168044386 0.2366315881818266 -0.07004691298121757 255 255 255 255 
-0.02025694444677035 0.6170887982611568 0.05308746473293972 255 255 255 255 
0.07020100761271279 0.1476108773175498 0.007724730658038963 255 255 255 255 
-0.05200054905370568 0.3885778552344878 -0.1749453838138367 255 255 255 255 
-0.1811865206597035 -0.6390188855325103 -0.1052108212123588 255 255 255 255 
-0.2784646298989001 0.4804744379681118 -0.04963295381487624 255 255 255 255 
-0.2562508508914125 -0.6320569984748251 0.1265344045773923 255 255 255 255 
-0.1179467709331935 0.3541360139096257 -0.1419617428477578 255 255 255 255 
0.05270125162218989 0.4295090344646811 -0.06777163940845525 255 255 255 255 
0.02777762859934651 0.3739803273088633 -0.2126736325677072 255 255 255 255 
-0.0839737391483657 0.5622953682921428 0.02977089673024499 255 255 255 255 
-0.1024215647614359 0.7753214539542571 0.02174365555365589 255 255 255 255 
-0.2795555302981327 0.4178796796620115 0.2541728945345899 255 255 255 255 
-0.1625415372152701 -0.4560381288606457 -0.04483249722235523 255 255 255 255 
0.02211617766652173 0.3656644890896246 -0.2104629577400011 255 255 255 255 
-0.2302479615522555 0.5555010646147092 0.2151024471175114 255 255 255 255 
-0.1579680174957197 0.2706802029108238 -0.1014346077838626 255 255 255 255 
-0.2100039901366099 -0.5057842729832194 0.1526950068226774 255 255 255 255 
-0.01660696507626654 0.2537610650832957 -0.09956865098160123 255 255 255 255 
-0.2699060537545874 0.5347915183753558 0.168073236978234 255 255 255 255 
-0.2783303944884155 -0.3216982691395354 0.12730655573925 255 255 255 255 
-0.1317203739220255 0.5196615360899308 0.04610944097449508 255 255 255 255 
-0.2459424882957039 0.5387109634752489 -0.06760938391409098 255 255 255 255 
-0.1160244872609156 0.4646497645798097 -0.1494525996704595 255 255 255 255 
-0.2966611330274667 -0.4067372386942902 0.09066924884981234 255 255 255 255 
-0.08831880437675904 -0.5390302899194253 -0.0002771709202976914 255 255 255 255 
-0.167026588034882 0.6573587846674389 0.009824411948976762 255 255 255 255 
-0.170648860959088 -0.6023800601420691 0.08246311196896122 255 255 255 255 
-0.1472732642523531 0.6427009479891316 0.07107593090535708 255 255 255 255 
-0.0432817738608656 0.09836776348889939 0.0844743109974993 255 255 255 255 
-0.09454366655338571 -0.1951263766086659 -0.1041093836457023 255 255 255 255 
-0.192965058707411 -0.6847875890833469 -0.07949733036052953 255 255 255 255 
-0.1402225491707111 -0.3818647768098355 -0.1280614383729217 255 255 255 255 
-0.07252887625688238 0.7038677641756983 0.09129361078670481 255 255 255 255 
