ply
format ascii 1.0
comment Created by Open3D
element vertex 1231
property double x
property double y
property double z
property uchar red
property uchar green
property uchar blue
end_header
0.242673 0.166624 -0.010402 255 255 0
0.133088 0.288153 0.0115149 255 0 0
0.0283151 0.374765 0.00532132 255 0 0
0.074189 0.0985051 0.0378618 0 255 0
-0.0865462 -0.410738 -0.0116695 128 0 128
0.00349279 0.0763631 0.082992 0 255 0
0.26942 0.14621 0.0156967 255 255 0
0.0721142 -0.50014 0.00421665 128 128 0
0.047228 0.193469 0.0632234 255 0 0
-0.0216915 0.344932 0.0158204 255 0 0
-0.303561 0.0985451 0.031896 0 255 0
-0.260756 0.136717 -0.00609883 0 0 255
0.103674 0.308887 0.00680658 255 0 0
0.0882484 -0.389047 -0.02614 128 128 0
-0.215694 0.13283 -0.0109297 0 0 255
0.0691206 -0.503515 -0.0301656 128 128 0
-0.0124422 -0.13601 -0.0331808 0 255 0
0.0748895 -0.381253 -0.045231 128 128 0
0.0331426 -0.213846 0.0245806 0 255 0
-0.0389628 0.394547 -0.00405001 255 0 0
-0.0417304 -0.37071 -0.04824 128 0 128
-0.243416 0.130156 -0.0125519 0 255 0
0.0445938 -0.335244 -0.000843113 128 128 0
-0.0201406 0.428104 0.0567814 255 0 0
-0.0560512 0.0475118 -0.059038 0 255 0
0.0871293 0.027891 -0.0120882 0 255 0
-0.0222224 0.145492 -0.0681437 0 0 255
-0.0862275 -0.0475677 0.0220385 0 255 0
-0.0338813 -0.404417 -0.0106054 128 0 128
-0.00163422 -0.115631 -0.00219984 0 255 0
0.0890933 -0.249711 -0.0226111 0 255 0
0.0110171 0.239763 0.0676258 255 0 0
-0.229347 0.180422 0.0224833 0 0 255
-0.044197 -0.466265 -0.0454016 128 0 128
0.0413003 -0.20841 -0.0467999 0 255 0
0.0791591 -0.187197 0.0212531 0 255 0
-0.0114491 0.374746 0.0363568 255 0 0
-0.0359932 0.380887 0.0262584 255 0 0
0.0289763 0.0679672 -0.0638868 0 255 0
0.0548905 0.157061 0.0556056 255 255 0
0.0554625 0.177663 -0.0623718 255 0 0
0.038639 -0.0490018 -0.0576498 0 255 0
-0.00970509 0.401993 -0.0437363 255 0 0
-0.0218065 -0.0986895 0.038904 0 255 0
-0.0458342 -0.158795 0.0373065 0 255 0
-0.00655162 0.0161256 0.0574272 0 255 0
-0.0346151 -0.210776 -0.0420655 0 255 0
0.0259281 0.472839 0.00579533 255 0 0
0.0930255 0.233856 0.00206964 255 0 0
0.0156938 0.478027 -0.0133168 255 0 0
0.0751382 -0.399382 -0.036855 128 128 0
0.0793602 -0.212081 0.0188567 0 255 0
0.0218427 -0.055485 -0.045842 0 255 0
0.0355679 -0.205035 -0.041306 0 255 0
-0.0874505 -0.276378 -0.0194013 0 255 0
0.0363061 0.333472 -0.0434703 255 0 0
-0.0274625 0.0203338 -0.0778028 0 255 0
-0.0500714 -0.402153 0.00505899 128 0 128
-0.0268454 -0.495551 -0.0121047 128 0 128
0.110232 0.273359 -0.0389652 255 0 0
0.0763978 0.182875 0.0316751 255 0 0
-0.19147 0.2203 -0.0210665 0 0 255
-0.0801752 0.271085 0.0408927 255 0 0
0.0258571 0.377665 0.0215075 255 0 0
0.0214359 0.114486 -0.0628067 0 255 0
0.114847 0.295433 0.0219807 255 0 0
0.0881574 -0.312956 -0.0103496 128 128 0
-0.0214268 0.482466 -0.00877693 255 0 0
-0.0273406 -0.372939 -0.0152162 128 0 128
-0.0330379 -0.314789 -0.0466547 128 0 128
-0.210589 0.14106 0.0216119 0 0 255
-0.0230857 -0.43712 -0.0208662 128 0 128
-0.198647 0.180095 0.0156982 0 0 255
0.0484145 0.0422014 0.0512967 0 255 0
-0.0633196 0.149478 -0.0426072 0 0 255
0.052456 -0.253978 -0.0506479 0 255 0
0.0839774 0.23646 0.0401264 255 0 0
0.0545423 -0.244919 0.0269345 0 255 0
-0.086579 -0.0978686 -0.0271941 0 255 0
0.0443189 -0.277526 -0.0517483 0 255 0
0.33694 0.0498087 0.0893965 0 255 0
-0.0500245 0.323497 -0.0478746 255 0 0
-0.0895215 -0.120691 0.00631461 0 255 0
0.0705356 -0.257922 -0.0477639 0 255 0
-0.227819 0.167495 -0.0168039 0 0 255
0.0117815 -0.110606 0.029326 0 255 0
0.00436829 0.391059 0.0448694 255 0 0
-0.012036 -0.119835 0.0254763 0 255 0
0.00381339 0.468614 -0.0353067 255 0 0
-0.0705738 -0.431001 -0.00904516 128 0 128
-0.0439685 0.202336 -0.0740217 255 0 0
0.0406835 -0.371572 0.00767247 128 128 0
-0.0810791 0.192543 0.0190898 255 0 0
-0.0499562 -0.0999107 0.0441934 0 255 0
-0.0833336 0.275609 -0.0639552 255 0 0
-0.288357 0.0690805 0.0597109 0 255 0
0.0149006 0.438934 -0.0467064 255 0 0
0.0790726 -0.194281 0.020416 0 255 0
-0.0659427 0.110549 -0.0306123 0 255 0
0.0454829 -0.291166 0.0114774 128 128 0
0.0825831 0.102072 0.0169284 0 255 0
-0.140181 0.232314 -0.0386894 255 0 0
0.0695941 -0.437379 0.0201545 128 128 0
0.00252196 0.45113 0.053789 255 0 0
-0.0326894 -0.502598 0.00912238 128 0 128
-0.0355464 0.464488 0.0411898 255 0 0
0.0824736 -0.0745576 -0.0328229 0 255 0
-0.0523688 0.057067 -0.0621054 0 255 0
-0.0276969 -0.418873 -0.0486748 128 0 128
-0.0859437 0.0243643 -0.0189611 0 255 0
-0.0350924 0.340712 -0.029609 255 0 0
-0.077431 -0.412185 -0.00175784 128 0 128
0.0115305 0.0470845 0.0670681 0 255 0
0.036514 -0.440767 0.0118573 128 128 0
-0.0202497 0.382817 -0.027925 255 0 0
0.064919 0.060471 0.0534409 0 255 0
0.0425558 -0.398098 0.00193965 128 128 0
0.0682225 -0.19671 -0.0334011 0 255 0
0.0495627 0.152432 0.0593426 255 255 0
0.0190983 0.224549 -0.0788956 255 0 0
0.0725658 -0.0880492 0.040306 0 255 0
0.0662709 0.265756 -0.065295 255 0 0
0.344876 0.0253066 0.0710923 0 255 0
-0.0342376 -0.369576 -0.0378104 128 0 128
0.28643 0.122025 0.0195689 0 255 0
0.318247 0.0803708 0.0474673 0 255 0
-0.0405469 -0.325466 0.00706561 128 0 128
-0.0272604 0.0554858 0.0714421 0 255 0
-0.0812174 -0.2504 -0.0408655 0 255 0
0.0292601 -0.188867 0.025693 0 255 0
-0.0034083 -0.131526 0.00612305 0 255 0
-0.0195328 0.163629 0.0703907 0 0 255
0.0100169 0.222819 -0.0777813 255 0 0
0.0154555 0.280179 0.0462435 255 0 0
-0.0383123 -0.180621 0.0322737 0 255 0
-0.0827503 -0.305289 -0.0053674 128 0 128
0.338015 0.0526934 0.0512988 0 255 0
0.0417872 -0.00170268 -0.0749069 0 255 0
0.0360872 0.445453 -0.0177418 255 0 0
0.0723013 -0.458606 -0.00127586 128 128 0
-0.0131352 -0.0507224 -0.0570064 0 255 0
-0.313879 0.0809273 0.0435909 0 255 0
0.0369149 0.439549 -0.0105977 255 0 0
0.174451 0.239341 -0.0190099 255 0 0
-0.00921181 0.0422638 -0.0714623 0 255 0
0.225298 0.160932 -0.0229692 255 255 0
-0.00646601 -0.161384 0.00690312 0 255 0
-0.00145569 -0.0958606 -0.0155865 0 255 0
-0.0628289 0.00982364 -0.0633821 0 255 0
0.0104008 0.0567715 -0.0684603 0 255 0
0.166345 0.178558 0.0092014 255 0 0
-0.0031891 0.357747 -0.038352 255 0 0
-0.0441624 0.10754 0.0620119 0 255 0
0.330176 0.0476407 0.0638522 0 255 0
-0.0650266 0.106629 0.0431297 0 255 0
0.0862995 0.283347 -0.0546862 255 0 0
0.0349681 -0.506889 0.032511 128 128 0
0.0188006 0.445466 -0.0423143 255 0 0
0.0642357 0.301581 -0.0556969 255 0 0
0.187776 0.156462 -0.00814428 255 255 0
0.0424971 0.0683235 -0.0595058 0 255 0
0.0225049 -0.231972 0.00881074 0 255 0
-0.00787316 0.130348 0.0769492 0 255 0
-0.0888231 0.0552067 0.00479784 0 255 0
0.0235869 -0.213879 -0.0313917 0 255 0
-0.0859922 -0.345952 -0.0203025 128 0 128
0.126827 0.29067 -0.0239291 255 0 0
-0.0863695 0.0384704 0.0017332 0 255 0
0.0679738 -0.362999 -0.0523754 128 128 0
-0.0337666 -0.488094 -0.0408515 128 0 128
0.0701291 -0.47423 -0.011523 128 128 0
0.0111321 -0.0956354 -0.0297802 0 255 0
0.0412807 0.296457 -0.0645543 255 0 0
-0.161287 0.243933 -0.025409 255 0 0
0.0568523 -0.408993 0.00852546 128 128 0
0.0635033 -0.318849 -0.0535007 128 128 0
0.0821223 -0.241604 -0.0390305 0 255 0
0.0640604 -0.467053 0.0275829 128 128 0
0.0418064 -0.21615 0.0283573 0 255 0
-0.0196326 0.193036 -0.0773271 255 0 0
0.275437 0.136195 0.0453099 255 255 0
0.223239 0.187004 0.019279 255 255 0
0.036562 0.299912 0.0328541 255 0 0
0.323994 0.0748437 0.0612813 0 255 0
-0.0650498 -0.506885 0.0148091 128 0 128
-0.0782198 0.107171 0.0265013 0 255 0
0.211913 0.207188 0.0108591 255 255 0
-0.0306569 0.250735 -0.0782947 255 0 0
0.0708815 -0.477431 0.0155061 128 128 0
0.0532006 -0.0168031 -0.0694305 0 255 0
-0.12848 0.213181 -0.0352169 255 0 0
-0.0306845 -0.407995 -0.0178353 128 0 128
-0.347452 0.0321737 0.0941046 0 255 0
-0.127049 0.225607 0.0247068 255 0 0
0.0745938 0.14267 -0.00941361 255 255 0
-0.0100004 0.372921 -0.0328298 255 0 0
0.0873266 0.0678467 -0.0042394 0 255 0
0.00366759 0.357857 0.0506191 255 0 0
0.0392997 -0.35869 0.00910764 128 128 0
0.00631581 0.369976 0.0368311 255 0 0
0.0277813 0.468069 0.0200961 255 0 0
-0.321199 0.0742543 0.0767478 0 255 0
0.0907767 -0.0237217 -0.0196756 0 255 0
0.0732598 -0.386155 0.00598186 128 128 0
-0.0113842 -0.245325 -0.00750182 0 255 0
-0.0798033 -0.383024 -0.0325599 128 0 128
-0.0525041 -0.260822 -0.0515558 0 255 0
0.0544775 -0.191064 0.0366107 0 255 0
0.0193533 -0.120493 -0.0382695 0 255 0
-0.0491948 0.330969 -0.0189986 255 0 0
-0.0210963 -0.0680259 -0.0553154 0 255 0
0.042052 -0.48962 0.0832729 128 128 0
-0.0277396 0.350206 0.0091579 255 0 0
-0.0829676 -0.274708 -0.0398371 0 255 0
-0.0571107 -0.284578 -0.0542469 0 255 0
0.00873877 -0.0193913 0.0531354 0 255 0
-0.0774133 0.231283 -0.0640082 255 0 0
-0.193281 0.151113 0.00400328 0 0 255
-0.0589526 0.0243633 -0.062967 0 255 0
0.0701435 -0.235448 0.0264346 0 255 0
-0.0465461 0.45485 0.0269765 255 0 0
-0.0107132 -0.105467 0.0284208 0 255 0
-0.0975858 0.270437 0.0353222 255 0 0
0.068999 0.206583 0.0503788 255 0 0
0.0637281 -0.511484 -0.0105377 128 128 0
0.0333609 0.32666 0.0068887 255 0 0
0.0658577 -0.166796 -0.0360649 0 255 0
0.0772513 -0.352568 -0.0494807 128 128 0
-0.182765 0.211036 -0.0356669 0 0 255
0.32546 0.0713323 0.0810562 0 255 0
-0.0867655 0.0754264 0.00851584 0 255 0
-0.0555685 0.25175 0.0480771 255 0 0
0.0143132 0.447197 0.0494291 255 0 0
-0.0777116 -0.149186 0.0264017 0 255 0
-0.0702377 -0.408525 -0.000390353 128 0 128
-0.034589 0.346174 -0.0151289 255 0 0
0.0589568 0.0735965 0.0557841 0 255 0
-0.0387917 0.146294 -0.057204 0 0 255
-0.0324498 -0.0552536 -0.0688988 0 255 0
-0.0707988 -0.437086 -0.00313607 128 0 128
-0.0224454 -0.163045 0.0236468 0 255 0
0.06327 -0.0313458 0.0450329 0 255 0
0.0538465 -0.0678239 -0.04929 0 255 0
-0.0349839 -0.500748 0.0915119 128 0 128
0.0286704 0.151834 0.0681441 255 255 0
-0.0135563 -0.168131 0.015357 0 255 0
0.154407 0.255637 0.0134265 255 0 0
0.293009 0.0791188 0.0321156 0 255 0
-0.0767072 -0.40659 -0.00366534 128 0 128
-0.0358913 -0.0497516 -0.0704949 0 255 0
0.0581209 0.123854 -0.0376425 0 255 0
0.0270844 -0.281176 -0.036307 0 255 0
-0.133906 0.271197 0.01064 255 0 0
-0.0278708 -0.073457 0.0456866 0 255 0
-0.0276338 0.161829 0.0665792 0 0 255
0.077167 -0.0860219 0.0374338 0 255 0
0.0355831 0.313468 0.0202958 255 0 0
0.0311875 -0.46734 -0.0176856 128 128 0
-0.314561 0.0664943 0.0396781 0 255 0
0.199157 0.185947 0.0183239 255 255 0
-0.0452222 0.00681208 0.044785 0 255 0
-0.348538 0.0254807 0.0976831 0 255 0
-0.0282723 0.118477 0.0678695 0 255 0
-0.0778913 0.0752513 0.0306371 0 255 0
-0.0694332 -0.341572 -0.0498578 128 0 128
0.0167505 -0.131354 -0.032809 0 255 0
-0.0898321 -0.00965434 -0.0192211 0 255 0
-0.0606048 -0.461508 -0.0317235 128 0 128
-0.209493 0.181316 0.0194321 0 0 255
-0.0643627 0.244722 0.0474386 255 0 0
-0.0389926 0.428059 0.0376022 255 0 0
0.0810219 -0.190138 -0.0301197 0 255 0
0.0800356 0.168459 -0.0160314 255 0 0
-0.201666 0.182124 -0.0292445 0 0 255
-0.102162 0.299338 0.011975 255 0 0
0.0221418 -0.178219 -0.0307786 0 255 0
0.0645733 -0.508494 0.102302 128 128 0
0.0841691 -0.314537 -0.00422799 128 128 0
0.221906 0.123996 0.0107588 0 255 0
-0.0307218 0.472033 -0.0234489 255 0 0
0.299968 0.0750664 0.0638188 0 255 0
-0.167804 0.238401 0.00510798 255 0 0
0.172468 0.237149 -0.0237663 255 0 0
-0.0833489 0.222214 0.0266298 255 0 0
0.326618 0.0557422 0.0933598 0 255 0
0.0681636 -0.434481 0.0156534 128 128 0
-0.0208824 0.204768 -0.0781284 255 0 0
0.0670281 -0.0492149 -0.0471987 0 255 0
0.0612077 -0.326741 0.01189 128 128 0
-0.0667606 0.313576 -0.0498345 255 0 0
0.153805 0.236407 0.0303769 255 0 0
-0.0304028 0.3343 -0.0444285 255 0 0
0.100825 0.304273 0.0206723 255 0 0
0.0245113 0.307506 -0.0609189 255 0 0
0.0821428 -0.250052 0.0143407 0 255 0
-0.0264925 0.265543 0.0490372 255 0 0
0.0361925 0.41765 0.00182546 255 0 0
-0.0693173 -0.296429 0.00837569 128 0 128
0.0265983 -0.41945 -0.0199737 128 128 0
-0.0802826 -0.242366 -0.0407413 0 255 0
0.0669099 0.166585 -0.0538819 255 0 0
0.0970033 0.310346 -0.00119188 255 0 0
-0.0404711 0.459616 -0.0269915 255 0 0
0.0333816 -0.254114 -0.0393547 0 255 0
0.0735091 0.0260795 0.0364175 0 255 0
-0.0406647 -0.439308 0.0246386 128 0 128
0.326124 0.0698159 0.0634887 0 255 0
-0.070225 -0.464278 -0.0102507 128 0 128
0.0299196 -0.336811 -0.0140426 128 128 0
-0.112861 0.283451 0.0195751 255 0 0
0.0287711 -0.0727533 0.0459012 0 255 0
0.167138 0.211538 0.0266756 255 0 0
0.0552516 0.294034 0.0346467 255 0 0
0.0502213 0.0143243 -0.0706348 0 255 0
-0.00797481 -0.027033 -0.0677967 0 255 0
-0.086999 -0.243809 -0.0169998 0 255 0
0.0350745 -0.470057 0.0265619 128 128 0
0.0226877 0.409874 0.0414042 255 0 0
0.02334 0.300004 -0.0641772 255 0 0
0.083595 0.0470064 -0.0152268 0 255 0
0.250718 0.144212 0.0423529 255 255 0
-0.0676579 0.169096 -0.0464496 255 0 0
0.0280617 0.222308 -0.0801894 255 0 0
0.23851 0.111943 0.0352918 0 255 0
0.00655228 0.111157 0.0790397 0 255 0
0.0424411 -0.508814 0.0308417 128 128 0
0.0804357 0.175972 0.00761089 255 0 0
-0.0262871 0.2497 0.0557203 255 0 0
-0.0886206 -0.133132 -0.0205597 0 255 0
-0.163077 0.252031 -0.0133234 255 0 0
0.0747379 0.145568 0.0264719 255 255 0
-0.0354526 0.223368 -0.0782945 255 0 0
0.0301269 -0.500268 0.0714276 128 128 0
-0.0363497 -0.484824 0.0583022 128 0 128
0.0361364 -0.303976 -4.99969e-06 128 128 0
0.214113 0.184342 -0.0223642 255 255 0
0.0324812 -0.495914 -0.00904027 128 128 0
0.00290613 -0.0136557 -0.0698536 0 255 0
-0.0923804 -0.0611896 -0.0162952 0 255 0
-0.219114 0.14471 -0.0234432 0 0 255
-0.135649 0.24404 0.0187971 255 0 0
-0.00382356 0.394786 0.0624078 255 0 0
-0.124782 0.28975 -0.020832 255 0 0
-0.145437 0.272364 0.00786698 255 0 0
-0.0770579 0.166283 -0.026049 0 0 255
0.00307172 0.142234 0.0754894 0 0 255
-0.00561332 0.0959625 -0.0618124 0 255 0
0.0226552 -0.0390733 0.0516341 0 255 0
-7.4976e-07 0.353753 0.0411097 255 0 0
-0.033375 -0.22668 -0.0405269 0 255 0
-0.0600123 0.126162 -0.038037 0 255 0
0.0767589 -0.357574 0.000804236 128 128 0
0.187636 0.225301 -0.00371265 255 255 0
0.0177331 0.410023 0.0461927 255 0 0
-0.0905376 -0.000926629 -0.000231743 0 255 0
0.042741 -0.37704 -0.040389 128 128 0
-0.0505731 -0.0755786 -0.0548793 0 255 0
0.068823 -0.22737 -0.0411248 0 255 0
0.078494 -0.311222 -0.0487788 128 128 0
-0.0619253 0.190952 0.0488967 255 0 0
0.0270022 0.321612 0.0187968 255 0 0
0.0684073 -0.509965 0.0290543 128 128 0
-0.0339069 0.0748953 0.0694649 0 255 0
-0.0491081 0.318494 -0.0536237 255 0 0
0.187726 0.163356 0.0132807 255 255 0
0.0525465 -0.287673 0.0158068 128 128 0
-0.0582033 0.0958684 -0.0458152 0 255 0
0.0354977 0.457912 0.00980385 255 0 0
-0.0365799 -0.509582 0.0325418 128 0 128
0.0736979 -0.11964 -0.0391003 0 255 0
0.113529 0.307093 -0.0161283 255 0 0
-0.0530278 0.316167 0.00153267 255 0 0
0.318924 0.0738624 0.0825086 0 255 0
-0.0819346 0.12244 0.00094533 0 255 0
0.233619 0.175551 0.0265691 255 255 0
0.073925 -0.276849 0.0224333 0 255 0
0.0329438 -0.0359218 -0.0654216 0 255 0
-0.0483454 -0.246892 -0.050638 0 255 0
-0.099482 0.302919 0.00800537 255 0 0
0.0817172 0.190761 0.0171868 255 0 0
0.0327858 -0.501077 0.0880722 128 128 0
-0.0703436 0.0664333 -0.0516116 0 255 0
-0.280441 0.129466 0.0258605 0 255 0
0.332325 0.044204 0.0806154 0 255 0
-0.172914 0.234698 -0.00128683 255 0 0
0.0852859 -0.218604 0.00966034 0 255 0
-0.0298551 0.214284 0.0645508 255 0 0
-0.0533155 0.285227 -0.0690192 255 0 0
-0.0719938 -0.0607993 0.0377316 0 255 0
-0.0373736 -0.0677444 -0.0656335 0 255 0
-0.0905248 0.287739 0.0319097 255 0 0
0.0326891 -0.368499 0.00717181 128 128 0
0.0580173 0.0399428 0.0480005 0 255 0
0.0238839 -0.154363 -0.0351452 0 255 0
-0.0109446 0.437714 0.0573073 255 0 0
-0.241412 0.112382 0.00328738 0 255 0
-0.00116417 0.386807 0.043835 255 0 0
0.0637517 0.189605 0.0521119 255 0 0
-0.302767 0.102546 0.0424792 0 255 0
0.0692771 0.324099 -0.0299022 255 0 0
-0.0416713 0.261044 -0.0758807 255 0 0
-0.169083 0.167602 -0.0181644 255 0 0
-0.0022737 0.478987 -0.0239988 255 0 0
0.0393863 -0.477408 -0.0390476 128 128 0
0.306364 0.0700671 0.0517153 0 255 0
-0.00276628 0.156116 0.0744612 0 0 255
0.0445055 -0.11997 0.043056 0 255 0
-0.0829861 -0.392687 -0.0268096 128 0 128
0.0913777 0.229443 0.00542649 255 0 0
-0.0252918 -0.504385 -0.0195516 128 0 128
0.086078 -0.0496291 -0.029965 0 255 0
-0.0521658 -0.481958 -0.0459646 128 0 128
-0.0270318 0.48145 -0.00370628 255 0 0
-0.0258987 0.449623 -0.0429306 255 0 0
-0.0646757 -0.485338 -0.0191161 128 0 128
-0.0349077 0.341009 -0.00140409 255 0 0
-0.0855909 0.24819 -0.0552551 255 0 0
-0.234544 0.144132 -0.0211042 0 0 255
0.0768294 0.120004 0.00286925 0 255 0
-0.0152456 0.246756 -0.0787106 255 0 0
-0.0752355 0.044368 -0.0386235 0 255 0
-0.0328629 -0.27937 -0.045198 0 255 0
0.0620592 -0.510631 0.084579 128 128 0
-0.0482622 0.437574 -0.0125676 255 0 0
-0.0476306 0.11617 -0.0507349 0 255 0
0.0911036 -0.306318 -0.0224082 128 128 0
0.044257 0.182962 -0.0708345 255 0 0
0.00580625 0.473392 -0.0308593 255 0 0
-0.0468208 -0.0725178 -0.0588719 0 255 0
-0.0546061 0.124255 0.0513862 0 255 0
-0.0827691 -0.305532 -0.0424188 128 0 128
0.0890971 -0.126814 0.0151186 0 255 0
0.100341 0.289495 0.0345944 255 0 0
0.0730441 -0.489661 0.0162895 128 128 0
-0.0625613 -0.306225 0.0137315 128 0 128
-0.0701119 0.0314463 -0.0468482 0 255 0
-0.0714578 -0.246825 0.0139203 0 255 0
0.0638492 0.313333 -0.0497597 255 0 0
-0.0290859 -0.221942 -0.0372448 0 255 0
0.020887 -0.40526 -0.0115984 128 128 0
-0.0270728 -0.489283 -0.0288377 128 0 128
-0.0395216 0.470165 -0.0109631 255 0 0
-0.0765556 -0.265925 -0.0467494 0 255 0
-0.104372 0.274345 -0.0432828 255 0 0
0.0202297 0.266978 0.0540159 255 0 0
-0.255613 0.139266 -0.00971984 0 0 255
0.0373382 -0.418139 -0.0476161 128 128 0
-0.0725204 0.108216 0.034308 0 255 0
-0.0735174 0.172827 0.0363522 255 0 0
0.0687083 -0.440679 -0.0261524 128 128 0
-0.0689378 -0.490151 0.0167062 128 0 128
0.0799741 -0.375573 -0.00571315 128 128 0
0.132869 0.243214 0.0288664 255 0 0
-0.211566 0.168638 0.0261537 0 0 255
0.0745795 -0.362007 0.00326588 128 128 0
-0.0807745 -0.173064 0.0156077 0 255 0
0.0461806 -0.225505 0.0280484 0 255 0
0.0279845 0.0400889 0.0774703 0 255 0
0.0126733 0.0343258 -0.0734868 0 255 0
-0.338988 0.0468597 0.0779303 0 255 0
-0.0275307 -0.430642 -0.0394216 128 0 128
0.0189343 0.349591 0.0155935 255 0 0
0.167668 0.198981 0.0237711 255 0 0
0.0784248 -0.0358223 0.0369507 0 255 0
-0.0620365 -0.467056 -0.028867 128 0 128
0.176807 0.194274 0.0236898 255 255 0
-0.0215407 0.179718 -0.0754284 255 0 0
0.0893434 -0.19805 -0.00222522 0 255 0
-0.0872616 -0.196882 -0.00777686 0 255 0
0.035345 -0.476179 0.0375232 128 128 0
-0.0530785 -0.288687 -0.0543401 128 0 128
0.343114 0.0399782 0.0660475 0 255 0
-0.045012 0.397423 -0.00822303 255 0 0
-0.0173075 -0.431508 -0.00810581 128 0 128
-0.0537447 -0.407469 0.00627647 128 0 128
-0.0692844 0.293699 0.0270272 255 0 0
-0.0749613 0.160604 -0.02623 0 0 255
-0.141566 0.225979 0.0188306 255 0 0
-0.0208514 0.0223477 0.0548 0 255 0
0.0144295 -0.0818869 0.0414088 0 255 0
0.0873882 0.0510996 -0.00439706 0 255 0
-0.0596165 -0.218879 0.0289001 0 255 0
-0.00971591 -0.0441339 0.0492573 0 255 0
0.0906789 0.213487 -0.00657484 255 0 0
0.0692828 -0.203622 0.0297619 0 255 0
-0.0535717 0.0734068 0.0585641 0 255 0
0.0862056 -0.361878 -0.0177846 128 128 0
-0.0259247 -0.493859 -0.0172304 128 0 128
0.0146839 0.39237 0.0476995 255 0 0
0.0370311 -0.177009 0.0311697 0 255 0
0.0568172 0.0514053 -0.0523247 0 255 0
-0.176563 0.161736 -0.0195391 0 0 255
-0.035622 0.382248 -0.00111358 255 0 0
0.0836895 -0.178228 0.0166344 0 255 0
0.0450988 0.0369763 0.0521865 0 255 0
0.0328262 -0.417881 -0.0435609 128 128 0
0.266653 0.148282 0.0057374 255 255 0
0.0460937 -0.09972 -0.0481179 0 255 0
-0.0515885 0.211453 -0.0745541 255 0 0
0.085888 -0.251989 0.00895151 0 255 0
-0.0169594 0.342345 0.020581 255 0 0
0.0124234 -0.165646 -0.0160904 0 255 0
0.0363901 -0.363928 -0.00164953 128 128 0
0.0652974 0.0715218 0.0512368 0 255 0
0.0895154 -0.0742614 -0.0230744 0 255 0
-0.00429075 0.0203186 0.0615182 0 255 0
0.0916147 -0.0179151 -0.0166798 0 255 0
0.193318 0.219349 0.00322245 255 255 0
0.0925572 0.248931 -0.0388025 255 0 0
-0.0117225 -0.0675347 0.0422836 0 255 0
0.00641029 0.228684 -0.0779749 255 0 0
-0.0996424 0.24916 -0.024667 255 0 0
0.00616255 0.308322 0.0292176 255 0 0
0.332609 0.0631654 0.0504853 0 255 0
-0.221494 0.162525 0.0338193 0 0 255
0.139973 0.277376 0.0144123 255 0 0
-0.0708493 -0.314179 -0.0522785 128 0 128
-0.0628654 0.126526 0.0432827 0 255 0
0.19344 0.220029 -0.0053094 255 255 0
-0.0778244 -0.157121 0.0241473 0 255 0
-0.0446 -0.461314 0.0391355 128 0 128
0.0511609 0.160542 0.0587292 255 255 0
-0.0207422 0.407183 -0.0421568 255 0 0
0.0254564 -0.294779 -0.0328558 128 128 0
-0.0649795 0.259783 -0.0716627 255 0 0
0.0903459 0.28685 -0.0521226 255 0 0
0.0612682 -0.230084 0.0328179 0 255 0
-0.145653 0.195742 0.01925 255 0 0
0.0088794 0.0457819 -0.0698001 0 255 0
-0.0113579 -0.244294 -0.0128497 0 255 0
0.061583 0.291981 0.0362186 255 0 0
-0.0103304 0.418679 -0.0492737 255 0 0
-0.0574688 -0.248694 0.026869 0 255 0
-0.18856 0.215351 0.0105945 0 0 255
-0.0536341 -0.439941 0.0180252 128 0 128
-0.0843607 0.300396 -0.052301 255 0 0
0.029193 -0.02665 0.0515433 0 255 0
0.0313239 -0.476702 -0.00108623 128 128 0
-0.0316394 0.26936 0.0465852 255 0 0
-0.0165683 -0.289393 -0.018449 128 0 128
-0.0250856 0.417168 -0.042078 255 0 0
-0.0189706 -0.0747778 -0.0509255 0 255 0
0.0465105 -0.117622 -0.0521101 0 255 0
0.0564866 -0.481682 -0.0442235 128 128 0
0.0325266 -0.243759 0.0156179 0 255 0
-0.0702804 0.181851 -0.0529315 255 0 0
-0.218703 0.19948 0.000446088 0 0 255
-0.212343 0.190978 -0.0187884 0 0 255
-0.106895 0.226575 0.0100872 255 0 0
-0.00299695 0.0158139 -0.0781009 0 255 0
0.0774978 -0.0365376 -0.0464707 0 255 0
-0.0132721 0.0687635 0.0746842 0 255 0
0.0632936 -0.183615 -0.0346911 0 255 0
0.0489485 -0.0348424 -0.068458 0 255 0
0.117178 0.298821 -0.0238936 255 0 0
0.316442 0.0686866 0.0843523 0 255 0
-0.0875167 0.00513015 0.0234253 0 255 0
-0.21489 0.130731 0.0202049 0 255 0
-0.205872 0.136397 -0.00897978 0 0 255
-0.206833 0.138957 0.0113788 0 0 255
-0.0351096 0.137284 -0.0567739 0 0 255
0.0810898 -0.0143743 -0.0440807 0 255 0
0.0332209 -0.331145 -0.00864722 128 128 0
0.33981 0.0390941 0.0954246 0 255 0
-0.000926445 -0.0262732 0.0516453 0 255 0
0.0142077 0.326913 0.0264904 255 0 0
0.0353599 0.4601 -0.00830739 255 0 0
0.117448 0.243206 -0.0318432 255 0 0
0.0753953 0.130301 0.0307809 0 255 0
0.035005 -0.189955 0.0287649 0 255 0
-0.0754856 -0.037827 -0.0488196 0 255 0
-0.0746485 -0.295896 0.00418848 128 0 128
0.0953654 -0.0291066 -0.00384126 0 255 0
-0.0235983 0.0947995 0.0711809 0 255 0
-0.0310036 -0.0790198 -0.0597487 0 255 0
0.0136738 -0.0625917 0.0464653 0 255 0
-0.0204211 0.389827 0.0341227 255 0 0
-0.0449338 0.023809 -0.071919 0 255 0
-0.245681 0.102104 0.0208046 0 255 0
-0.202643 0.139235 -0.00539481 0 0 255
-0.0138097 0.103568 0.0789323 0 255 0
0.0414992 0.411456 -0.00637516 255 0 0
0.0352057 0.153793 -0.0685145 255 255 0
0.0710758 -0.511472 0.0641599 128 128 0
-0.0733478 -0.262366 0.00582183 0 255 0
0.0958852 0.247686 -0.00866314 255 0 0
0.0393798 0.317872 -0.053852 255 0 0
0.0368827 0.126776 0.0658669 0 255 0
0.216696 0.204403 0.0116508 255 255 0
-0.0297961 -0.31129 -0.0436881 128 0 128
-0.0700806 -0.153914 0.0323894 0 255 0
0.0623219 -0.346006 0.0139879 128 128 0
0.077057 0.128733 -0.0061988 0 255 0
0.0810705 0.306982 0.0204556 255 0 0
-0.0724062 0.304618 0.015894 255 0 0
0.0797589 -0.305468 -0.0475762 128 128 0
0.0958048 0.245886 -0.00294464 255 0 0
0.087714 -0.150605 0.0128156 0 255 0
-0.0878046 -0.0335846 -0.0247698 0 255 0
-0.00294621 0.276525 0.0542799 255 0 0
0.151757 0.247214 -0.0254361 255 0 0
0.0100757 0.442572 0.0537113 255 0 0
0.293219 0.0890423 0.077413 0 255 0
0.329933 0.0672936 0.0726482 0 255 0
0.257355 0.137607 -0.00831978 255 255 0
-0.147627 0.261603 -0.0207795 255 0 0
-0.0407691 -0.396949 -0.0554701 128 0 128
-0.0268375 -0.404689 -0.0488965 128 0 128
-0.0638211 -0.461539 -0.0269867 128 0 128
-0.0820364 0.313664 -0.00594986 255 0 0
-0.0846272 0.201521 -0.00378109 255 0 0
-0.058695 -0.394415 0.0121827 128 0 128
-0.0530527 -0.510921 0.0848024 128 0 128
0.0473443 0.117608 0.0611036 0 255 0
-0.0250745 0.281474 0.0418668 255 0 0
0.0409554 -0.144863 -0.0505805 0 255 0
0.0240623 -0.42406 -0.0263388 128 128 0
-0.0512471 0.236996 0.0545543 255 0 0
-0.00451521 -0.142633 0.00629971 0 255 0
0.135611 0.236816 0.0289067 255 0 0
0.0697401 -0.311406 0.0223906 128 128 0
-0.082052 -0.212167 0.00479871 0 255 0
-0.29269 0.0730132 0.0805127 0 255 0
-0.00498947 -0.0691923 -0.0366222 0 255 0
-0.0264778 0.47353 0.048499 255 0 0
0.20455 0.167514 -0.0256087 255 255 0
0.103491 0.269054 -0.034419 255 0 0
0.0163965 -0.125141 0.0289801 0 255 0
0.100833 0.257057 0.0161226 255 0 0
0.0499659 -0.241415 0.0261036 0 255 0
0.0864635 -0.101682 -0.0244622 0 255 0
-0.0810592 -0.278681 -0.0435842 0 255 0
-0.0567798 -0.00378485 0.0417522 0 255 0
0.0574054 0.0974538 -0.0406428 0 255 0
-0.0890918 -0.109557 -0.0232853 0 255 0
-0.105822 0.229328 -0.00366402 255 0 0
-0.0287999 0.290713 0.0360985 255 0 0
-0.0263646 -0.353728 -0.00229921 128 0 128
-0.076355 -0.0508499 -0.0483131 0 255 0
0.087373 0.194729 0.000346822 255 0 0
-0.130247 0.28657 0.00233304 255 0 0
0.179279 0.167691 -0.0102451 255 255 0
-0.0563739 0.325863 -0.0393961 255 0 0
0.235715 0.110904 0.0132869 0 255 0
-0.00336219 0.294829 0.0471686 255 0 0
-0.00111689 0.378383 0.0261913 255 0 0
-0.0766952 -0.209256 -0.0392326 0 255 0
0.0806753 0.0950188 -0.00741021 0 255 0
0.0739138 -0.272225 -0.048864 0 255 0
0.0818499 -0.113879 0.029322 0 255 0
0.0720835 -0.35168 -0.0520802 128 128 0
0.260967 0.100607 0.023371 0 255 0
0.0437941 0.0173777 0.0492305 0 255 0
0.304711 0.106677 0.0362893 0 255 0
-0.0500053 -0.409698 -0.0518444 128 0 128
-0.0734071 -0.380222 0.00483051 128 0 128
-0.0923462 -0.0809071 -0.0132443 0 255 0
0.0683913 0.0940137 0.0452967 0 255 0
-0.34584 0.0408608 0.0631302 0 255 0
0.066501 -0.214355 0.0317301 0 255 0
-0.000973077 0.374865 0.0393454 255 0 0
-0.0275707 -0.483057 -0.00455159 128 0 128
-0.0318704 0.24277 -0.0787989 255 0 0
0.0940202 0.291585 0.0344419 255 0 0
-0.089143 0.0479493 -0.00550606 0 255 0
-0.0209881 -0.0861682 -0.0564275 0 255 0
0.0591831 -0.294142 0.0171569 128 128 0
0.00529022 0.380173 -0.0350249 255 0 0
0.0993398 0.300218 -0.0358808 255 0 0
-0.12074 0.228801 -0.0359042 255 0 0
-0.00439985 0.00393863 -0.0782333 0 255 0
-0.0789476 -0.167663 -0.0364945 0 255 0
-0.0649764 0.0258997 -0.0559023 0 255 0
0.0570608 -0.510154 0.0333515 128 128 0
0.0297421 -0.143258 0.0335669 0 255 0
-0.190023 0.167945 0.0107894 0 0 255
0.262965 0.0996695 0.0180253 0 255 0
0.0714564 0.276312 0.0472459 255 0 0
-0.251885 0.155599 0.000458423 0 0 255
0.2843 0.0982364 0.0161191 0 255 0
-0.0639411 -0.384068 0.0169632 128 0 128
-0.0273441 -0.143147 0.0316048 0 255 0
-0.0217415 0.331549 0.0229539 255 0 0
-0.079271 0.136872 0.0267604 0 0 255
0.0202962 -0.38068 -0.00370738 128 128 0
-0.217567 0.197458 0.00780621 0 0 255
-0.029266 0.48114 0.00792053 255 0 0
0.121918 0.234642 0.0181943 255 0 0
0.0592784 -0.427578 0.0133961 128 128 0
0.242873 0.119044 0.0437069 0 255 0
0.0362195 -0.362765 -0.00755443 128 128 0
-0.154224 0.249874 -0.0242346 255 0 0
-0.0637032 -0.405499 -0.0387739 128 0 128
0.040633 -0.397981 -0.0423786 128 128 0
-0.0566736 -0.410675 0.0103155 128 0 128
-0.0308744 -0.437686 0.0153054 128 0 128
0.0713182 -0.48188 0.00036469 128 128 0
-0.231385 0.174502 -0.00408294 0 0 255
-0.0456064 -0.353536 -0.0553683 128 0 128
-0.085384 -0.0775758 -0.0277245 0 255 0
-0.04605 0.0564312 -0.0641876 0 255 0
-0.00774895 0.0997994 0.0807362 0 255 0
0.0178895 0.478343 -0.00725787 255 0 0
-0.0828467 -0.336489 -0.00578303 128 0 128
0.0431151 0.291587 -0.0663075 255 0 0
-0.0182273 0.163947 -0.0736336 0 0 255
0.0347268 -0.158252 -0.0439299 0 255 0
-0.0764604 -0.275306 -0.048173 0 255 0
-0.0596135 -0.438953 0.0124815 128 0 128
0.0586942 0.0970492 0.0541281 0 255 0
0.0847118 0.212348 -0.0494001 255 0 0
0.0728035 0.227179 0.051025 255 0 0
0.0842981 0.0426093 -0.00831839 0 255 0
0.0352847 0.440165 -0.0192298 255 0 0
-0.053503 0.10966 0.054038 0 255 0
0.0534902 -0.195032 -0.040862 0 255 0
0.0226328 0.282329 0.0454414 255 0 0
-0.0568064 0.29374 -0.0653397 255 0 0
0.00846729 0.437862 -0.0502202 255 0 0
0.148681 0.253356 -0.0252981 255 0 0
-0.0519753 -0.392681 -0.0560728 128 0 128
0.0779919 -0.0192017 0.0373407 0 255 0
-0.0445082 0.0492755 0.0664952 0 255 0
0.077286 0.164803 0.0249205 255 255 0
0.00637113 0.241924 0.0643328 255 0 0
0.205984 0.201024 -0.0207698 255 255 0
0.092562 -0.0135876 0.0124519 0 255 0
-0.0908346 0.304856 -0.0310485 255 0 0
0.0181516 -0.00291355 -0.0759159 0 255 0
-0.0728719 0.222723 0.0432963 255 0 0
-0.00231299 -0.124954 0.00260261 0 255 0
0.11085 0.292736 -0.0345362 255 0 0
-0.350482 0.01947 0.0769451 0 255 0
0.0527586 0.239102 0.0612265 255 0 0
-0.17565 0.156497 -0.0155914 0 0 255
-0.0336952 -0.447802 0.0228923 128 0 128
-0.0715559 0.145576 0.0359236 0 0 255
-0.295776 0.0924998 0.0191867 0 255 0
0.0683548 0.0882661 0.0457688 0 255 0
0.0206255 -0.236562 0.00461662 0 255 0
-0.0590301 -0.404477 -0.043944 128 0 128
0.091291 0.273711 0.0434681 255 0 0
0.0364303 0.452286 0.0129635 255 0 0
0.00553833 -0.129658 0.0029528 0 255 0
-0.0703979 -0.0321718 0.0378722 0 255 0
-0.0499101 -0.295018 -0.0541042 128 0 128
-0.0949853 0.252491 0.0094681 255 0 0
0.0445262 -0.494425 0.099714 128 128 0
-0.0740732 -0.134869 0.0323517 0 255 0
0.0836511 0.21897 0.0273724 255 0 0
-0.0690448 -0.494545 0.0112625 128 0 128
-0.0710012 0.0444853 -0.0503558 0 255 0
-0.226341 0.191159 0.00753427 0 0 255
0.101429 0.24855 -0.00534549 255 0 0
0.0447158 -0.425563 0.00835622 128 128 0
0.00548922 0.241121 -0.077282 255 0 0
-0.152339 0.195705 0.020789 255 0 0
0.232197 0.167992 -0.0222223 255 255 0
0.0778923 -0.422146 -0.00758549 128 128 0
-0.077056 -0.0615556 0.0333713 0 255 0
0.0607954 -0.461867 0.0320946 128 128 0
-0.220211 0.169371 0.0299134 0 0 255
0.141902 0.205566 -0.027935 255 0 0
-0.0446559 0.273436 0.0410283 255 0 0
-0.0424562 0.451804 0.0306201 255 0 0
-0.0130465 -0.262663 -0.0117225 0 255 0
-0.128636 0.197764 -0.00425838 255 0 0
-0.0911209 0.227186 -0.0204441 255 0 0
0.268131 0.148633 0.0110185 255 255 0
-0.0847485 -0.34556 -0.0373921 128 0 128
-0.0794504 0.309257 -0.0453519 255 0 0
0.0241 0.102329 -0.0548454 0 255 0
0.08432 -0.0107908 0.0318048 0 255 0
-0.0275644 0.444364 0.0519685 255 0 0
0.0233732 -0.437394 -0.0115379 128 128 0
0.112978 0.305528 0.00998552 255 0 0
0.089117 -0.231414 -0.000605148 0 255 0
-0.307107 0.0605324 0.0947337 0 255 0
-0.09098 -0.0983728 0.0156191 0 255 0
-0.0765216 -0.184846 -0.0386261 0 255 0
-0.144203 0.247106 0.0122325 255 0 0
0.0875727 -0.227181 0.00414729 0 255 0
0.0748638 0.107376 -0.0145801 0 255 0
-0.0369507 -0.449136 -0.0397746 128 0 128
0.130894 0.294116 -0.00619277 255 0 0
0.0193772 -0.225139 0.0072257 0 255 0
-0.264696 0.146502 0.0229665 0 0 255
-0.0591183 0.144293 -0.045692 0 0 255
-0.00634249 0.0874344 -0.0631718 0 255 0
-0.0638207 0.1727 0.043865 255 0 0
0.0329376 -0.0645794 -0.0503088 0 255 0
0.0373874 -0.490879 0.0800585 128 128 0
0.0672233 0.193891 0.0500122 255 0 0
0.172067 0.172011 0.00652212 255 0 0
-0.0343561 -0.0435412 -0.0715215 0 255 0
0.017633 0.175132 -0.0774133 255 0 0
-0.0280386 -0.227563 -0.0363258 0 255 0
0.0255481 -0.324808 -0.0262094 128 128 0
0.0421085 -0.30715 0.00363951 128 128 0
-0.0779545 0.124197 0.0265813 0 255 0
0.0729589 0.166968 -0.0462407 255 0 0
-0.0279308 0.431246 0.0519789 255 0 0
-0.0461 -0.299942 0.015389 128 0 128
0.0490093 -0.507819 0.021221 128 128 0
0.0852209 0.218367 0.0205017 255 0 0
0.0549955 -0.313183 0.00996091 128 128 0
-0.0725897 -0.351401 0.000441012 128 0 128
-0.0552226 -0.511579 0.0739183 128 0 128
-0.135467 0.265271 0.0120753 255 0 0
0.00487025 0.0634236 -0.0684325 0 255 0
0.0865787 0.0167814 -0.0230403 0 255 0
0.0140431 0.467961 0.0469681 255 0 0
-0.0288924 -0.304499 0.0105861 128 0 128
-0.077137 0.174531 -0.0318579 255 0 0
-0.0638957 0.0446077 0.0550957 0 255 0
0.00796712 -0.0789374 0.0388743 0 255 0
-0.0386944 0.189397 -0.0708783 255 0 0
0.263959 0.138896 0.0436696 255 255 0
-0.112609 0.267732 0.0294159 255 0 0
-0.00591366 -0.122461 -0.023148 0 255 0
-0.106938 0.300778 0.00894161 255 0 0
-0.0246462 -0.399183 -0.0436955 128 0 128
-0.0779681 0.294289 0.0271913 255 0 0
0.0532634 -0.456728 -0.04767 128 128 0
0.0301077 0.331604 0.0108777 255 0 0
0.00833323 0.00860562 -0.0776988 0 255 0
0.0424657 0.310739 0.0215923 255 0 0
0.205525 0.208455 0.0125454 255 255 0
-0.0447653 -0.0136733 -0.0762082 0 255 0
-0.0864825 -0.298868 -0.0324526 128 0 128
0.0680251 0.0314727 -0.0485419 0 255 0
-0.0308996 -0.0103046 0.0478313 0 255 0
-0.148857 0.196804 -0.0344572 255 0 0
-0.0635019 -0.481859 -0.0235497 128 0 128
-0.0798526 0.155545 0.00977198 0 0 255
-0.0832052 0.0140305 -0.0299853 0 255 0
-0.0332736 -0.39875 -0.0532006 128 0 128
0.0641506 0.233353 -0.0677939 255 0 0
0.0308229 -0.469821 -0.000816849 128 128 0
0.0738528 0.155741 -0.0275171 255 255 0
-0.0164907 -0.0156747 0.0498392 0 255 0
0.0233375 -0.375033 -0.0169391 128 128 0
-0.0255172 -0.0109523 0.0488351 0 255 0
0.114031 0.2339 -0.0191904 255 0 0
-0.0875876 -0.397814 -0.0132407 128 0 128
-0.0684999 0.0995893 0.0408783 0 255 0
0.0735179 -0.48869 0.0303174 128 128 0
-0.0278477 0.375566 0.038674 255 0 0
0.0676878 -0.1532 -0.0383547 0 255 0
-0.138905 0.27566 -0.019962 255 0 0
0.0247745 -0.401575 -0.0258003 128 128 0
0.04093 -0.273863 0.0139338 0 255 0
0.077494 -0.125723 0.0323935 0 255 0
-0.191428 0.218319 0.00057578 0 0 255
-0.0255087 0.422531 -0.04341 255 0 0
0.0147206 0.0120613 -0.077737 0 255 0
0.0942817 -0.100364 0.00772413 0 255 0
0.0386366 0.425118 0.00389004 255 0 0
0.0202002 0.447509 0.0427287 255 0 0
-0.0442642 0.160233 -0.0626198 0 0 255
-0.0551054 0.32331 -0.0075666 255 0 0
0.038345 -0.356363 -0.0488354 128 128 0
0.0533786 0.329783 -0.00688792 255 0 0
0.292259 0.0805217 0.0826468 0 255 0
0.154303 0.21127 0.0221745 255 0 0
-0.175912 0.155555 -0.0100008 0 0 255
-0.0819149 -0.211969 -0.0343274 0 255 0
-0.087414 0.105182 0.00622256 0 255 0
-0.00668431 -0.134387 0.0138914 0 255 0
-0.0710734 -0.444665 -0.0209785 128 0 128
0.0114121 0.479926 0.0304398 255 0 0
0.0104484 0.0636441 -0.0675752 0 255 0
0.0423587 0.129272 -0.0529606 0 255 0
0.0276972 0.0363048 0.0544109 0 255 0
0.286645 0.122133 0.0455293 0 255 0
0.0455855 0.111953 0.0624597 0 255 0
0.0632277 -0.456464 0.0295341 128 128 0
8.17428e-06 0.410929 -0.0477821 255 0 0
0.27338 0.102603 0.0580801 0 255 0
0.085754 0.0571279 0.0184448 0 255 0
-0.248178 0.149396 0.0418874 0 0 255
0.0242724 -0.375614 -0.00488523 128 128 0
-0.0231414 -0.189444 -0.0332417 0 255 0
0.0651161 -0.341145 0.0129194 128 128 0
-0.0888648 0.0576088 -0.00589362 0 255 0
0.086402 -0.198123 0.00747144 0 255 0
0.0850712 0.193463 -0.0354797 255 0 0
-0.0658764 -0.486188 0.04858 128 0 128
-0.0210559 0.219891 -0.0792169 255 0 0
-0.169874 0.170066 -0.0231228 255 0 0
-0.00232554 0.353156 0.0351752 255 0 0
-0.0137279 0.1661 0.0753371 0 0 255
0.0867344 0.071545 0.00795684 0 255 0
-0.00811956 0.0675554 0.0777138 0 255 0
0.0103229 -0.00228122 0.0513469 0 255 0
-0.0558418 -0.474268 -0.0421754 128 0 128
-0.0634739 0.22735 -0.0739597 255 0 0
-0.0437207 0.408512 0.0141899 255 0 0
-0.060082 -0.25537 -0.0501671 0 255 0
-0.0330163 0.350446 -0.00140838 255 0 0
-0.016586 0.370565 0.0506854 255 0 0
0.0674462 -0.0430419 -0.0512545 0 255 0
-0.0652367 -0.293234 0.0120308 128 0 128
0.0868539 -0.209762 -0.0288636 0 255 0
-0.0685649 -0.0172343 0.0385365 0 255 0
0.0708553 -0.256395 0.0248466 0 255 0
-0.0341849 0.372797 0.0158015 255 0 0
-0.00231069 0.356423 0.051791 255 0 0
-0.225262 0.182701 -0.0110884 0 0 255
-0.0364021 0.340493 -0.0154866 255 0 0
-0.0339073 0.0346388 -0.071992 0 255 0
0.0904174 -0.29217 -0.0262269 128 128 0
-0.0852124 -0.218522 -0.00461181 0 255 0
-0.0233323 0.0594747 0.0724754 0 255 0
0.0314627 -0.503912 0.0438251 128 128 0
0.16113 0.185398 0.0127222 255 0 0
-0.128526 0.202743 0.012846 255 0 0
0.0283827 0.379148 -0.0067995 255 0 0
-0.149484 0.240521 -0.0348304 255 0 0
-0.0466765 0.460212 -0.0101967 255 0 0
0.250652 0.135647 -0.010891 255 255 0
-0.0192837 0.112572 -0.0638392 0 255 0
0.0710844 -0.480349 0.010894 128 128 0
-0.00175798 0.13356 -0.0715994 0 0 255
0.0298894 -0.293699 -0.00223335 128 128 0
-0.00998333 -0.154981 -0.018033 0 255 0
-0.0890832 0.0542818 -0.00149133 0 255 0
0.180326 0.18491 0.0201331 255 255 0
0.0740957 -0.205635 0.0253145 0 255 0
-0.0409122 -0.408718 -0.0553789 128 0 128
-0.0481638 0.287573 -0.0696849 255 0 0
-0.000240189 0.375589 0.0332833 255 0 0
0.176969 0.226319 -0.0279343 255 255 0
-0.0247519 0.449986 0.0517072 255 0 0
-0.00559871 -0.0653457 -0.0404646 0 255 0
-0.00307405 -0.101309 -0.0214418 0 255 0
0.0875584 -0.330223 -0.00959338 128 128 0
0.0699293 -0.185044 -0.0316935 0 255 0
-0.0132773 -0.248319 0.00328811 0 255 0
0.0284595 0.344844 -0.0297818 255 0 0
-0.290827 0.0686343 0.0671877 0 255 0
0.0805782 0.23297 -0.0571599 255 0 0
0.00595303 -0.141204 -0.00437982 0 255 0
-0.0476117 -0.265427 0.0214894 0 255 0
0.0538752 -0.512533 -0.0138136 128 128 0
0.124987 0.250039 -0.0333002 255 0 0
0.0171243 0.364005 0.0303076 255 0 0
-0.00741711 0.468359 0.053152 255 0 0
-0.050136 -0.28171 -0.0538368 0 255 0
-0.0212091 -0.141348 -0.0423329 0 255 0
-0.0474691 -0.421802 0.0189127 128 0 128
0.0534457 0.0276054 0.050277 0 255 0
0.0348609 -0.34582 -0.0441389 128 128 0
-0.0794976 0.194817 0.0283995 255 0 0
-0.0491443 -0.0526251 0.0450875 0 255 0
-0.0284977 0.303908 0.0267564 255 0 0
0.0436105 -0.509949 0.0978058 128 128 0
-0.0135926 -0.230457 -0.0179632 0 255 0
-0.0533445 -0.0674523 0.044351 0 255 0
-0.010637 0.481039 0.0439621 255 0 0
-0.0976576 0.254657 -0.0281875 255 0 0
0.344945 0.0322177 0.0620799 0 255 0
-0.0372049 0.170735 -0.0666304 255 0 0
-0.170895 0.17445 0.00750079 255 0 0
0.00485017 0.389127 0.0512006 255 0 0
0.0801825 -0.129011 -0.0272253 0 255 0
0.296346 0.0919584 0.0259947 0 255 0
0.0748295 -0.29143 0.0222662 128 128 0
-0.0834358 0.0466151 -0.0308849 0 255 0
-0.0411734 -0.138299 0.0377211 0 255 0
-0.00163353 0.29864 -0.0676284 255 0 0
-0.00689427 0.296874 -0.0686167 255 0 0
-0.0730161 0.209294 -0.0619304 255 0 0
0.0733999 -0.102581 0.0389081 0 255 0
-0.0306185 -0.379345 -0.0186254 128 0 128
0.0482691 -0.510828 0.063677 128 128 0
-0.0866397 0.0989299 0.00851616 0 255 0
-0.0821002 0.238919 0.03643 255 0 0
-0.0215117 -0.115141 0.0341808 0 255 0
0.0296179 0.130894 -0.0639576 255 255 0
-0.0390518 -0.117643 -0.0556022 0 255 0
0.0693465 -0.470267 -0.0239408 128 128 0
-0.090807 -0.00786481 0.00193678 0 255 0
0.0810867 0.0232164 -0.0309443 0 255 0
-0.000561238 -0.000432612 -0.076081 0 255 0
-0.0584436 -0.0671331 -0.0570268 0 255 0
0.0319523 -0.175975 0.0288071 0 255 0
0.21473 0.170122 -0.0256364 255 255 0
-0.031233 -0.385462 -0.0452131 128 0 128
-0.015678 -0.303173 -0.00871415 128 0 128
-0.293617 0.11104 0.0517911 0 255 0
-0.0761122 -0.162455 0.0249724 0 255 0
0.00876677 0.262279 0.0542167 255 0 0
0.00337879 -0.10615 0.016099 0 255 0
-0.0446323 0.0394594 0.047548 0 255 0
0.0491037 0.311942 0.0185973 255 0 0
0.0545183 -0.274515 0.0194671 0 255 0
-0.0825555 0.174275 -0.00358078 255 0 0
0.0763712 -0.136529 -0.0313448 0 255 0
-0.0810572 0.139371 0.0192362 0 0 255
0.0619251 -0.507605 0.00286127 128 128 0
0.0281789 0.455698 0.0339932 255 0 0
0.00734055 -0.15202 0.00615458 0 255 0
-0.0581294 -0.24336 -0.0485692 0 255 0
0.280655 0.122022 0.0515338 0 255 0
-0.0138672 0.0732382 0.0854705 0 255 0
-0.0478469 0.111243 0.0585851 0 255 0
0.0680184 -0.460713 0.0207362 128 128 0
0.124768 0.295098 -0.0215002 255 0 0
-0.0443726 -0.493754 0.0975198 128 0 128
0.0210407 0.0195982 0.0587994 0 255 0
0.0699048 -0.462592 0.0157349 128 128 0
-0.0302396 -0.0390644 0.048974 0 255 0
0.0521276 0.0315391 -0.0632741 0 255 0
0.0880013 -0.111661 -0.0180243 0 255 0
-0.156277 0.262918 0.00430267 255 0 0
-0.214032 0.198576 -0.0121425 0 0 255
0.0264906 0.22792 -0.0797385 255 0 0
0.029554 0.427513 0.0253582 255 0 0
0.0412685 -0.462648 0.0304781 128 128 0
-0.0341153 -0.309426 -0.0483469 128 0 128
0.053673 0.0747723 -0.0507958 0 255 0
0.122814 0.241509 -0.0327324 255 0 0
0.283449 0.0825711 0.0590132 0 255 0
-0.0807049 -0.0710607 -0.0367013 0 255 0
-0.109122 0.250605 -0.0340671 255 0 0
0.0213732 -0.0562274 0.0499084 0 255 0
0.0199597 0.279848 -0.0710822 255 0 0
-0.244986 0.1254 0.0495496 0 255 0
-0.00471841 0.330178 0.0326307 255 0 0
0.0906173 0.210288 -0.0113424 255 0 0
-0.0287902 0.00444876 -0.0807282 0 255 0
-0.0333864 0.475052 0.04081 255 0 0
-0.0646465 -0.164301 -0.0394217 0 255 0
0.222222 0.140304 0.0334654 255 255 0
-0.0869508 -0.169376 -0.0228284 0 255 0
-0.230198 0.141985 0.0397973 0 0 255
0.182232 0.213667 -0.0302315 255 255 0
-0.0234151 0.393902 0.04906 255 0 0
-0.0699086 -0.496215 0.0179199 128 0 128
0.0918491 0.00632055 0.00878293 0 255 0
0.0143831 0.476459 -0.0187493 255 0 0
0.0235673 -0.430637 -0.0250913 128 128 0
-0.0388181 -0.443782 -0.0377217 128 0 128
-0.0663456 -0.27453 -0.0523352 0 255 0
0.0330941 0.331913 0.0052372 255 0 0
0.0898473 -0.247546 -0.0170754 0 255 0
-0.030433 -0.502111 0.0749242 128 0 128
0.0306621 -0.503498 0.049764 128 128 0
0.0345968 -0.506201 -0.0357013 128 128 0
0.0277646 -0.302194 -0.00931208 128 128 0
-0.0399364 0.282939 0.0369544 255 0 0
-0.0777771 0.0557935 -0.043189 0 255 0
0.021197 0.462517 -0.031677 255 0 0
-0.0232644 -0.250683 0.0152285 0 255 0
0.0432044 0.32938 -0.0434141 255 0 0
-0.0712106 -0.0284693 -0.0557463 0 255 0
-0.00603586 0.26002 -0.0762416 255 0 0
-0.0653433 0.171365 -0.0508755 255 0 0
-0.0854509 0.0753922 0.0137717 0 255 0
-0.0755171 -0.36185 0.00558216 128 0 128
0.0171456 -0.0583256 -0.0410716 0 255 0
-0.0750725 0.214349 0.038824 255 0 0
-0.0142883 0.0879189 -0.05961 0 255 0
-0.0895548 -0.0328285 0.0200751 0 255 0
-0.0131795 -0.0943837 -0.0460967 0 255 0
-0.0237871 0.238605 0.0602847 255 0 0
-0.28604 0.124931 0.0337636 0 255 0
0.0688844 0.295167 0.0338332 255 0 0
-0.00231903 0.0306831 0.0574822 0 255 0
0.0071652 0.156013 -0.0765449 0 0 255
0.0906334 -0.188222 -0.00825448 0 255 0
-0.156852 0.259266 -0.00618621 255 0 0
0.0693259 -0.031289 0.0417707 0 255 0
0.0607575 -0.313446 -0.0543134 128 128 0
-0.0248159 -0.35601 -0.0279531 128 0 128
0.0151266 0.104945 -0.0587259 0 255 0
-0.0204355 0.0547264 0.0729193 0 255 0
-0.14502 0.235907 -0.0364786 255 0 0
-0.00295467 0.381006 0.0587308 255 0 0
-0.192167 0.162213 0.0110362 0 0 255
-0.00792183 0.351411 -0.0397736 255 0 0
-0.252924 0.161887 0.0212684 0 0 255
-0.0274975 0.407555 0.0401649 255 0 0
0.093659 -0.0689756 0.017165 0 255 0
-0.295394 0.0753672 0.0352339 0 255 0
0.02439 0.13683 0.070265 255 255 0
0.212862 0.154607 0.0298571 255 255 0
0.0181686 0.404889 -0.0380321 255 0 0
0.0826946 0.033743 0.0230131 0 255 0
-0.0161336 0.424696 0.0583037 255 0 0
-0.147503 0.239144 0.0141606 255 0 0
-0.0737617 -0.164165 -0.0383666 0 255 0
-0.0127937 -0.0180997 -0.0748995 0 255 0
-0.0135503 0.481781 -0.0188651 255 0 0
-0.0373524 0.018059 -0.0760965 0 255 0
0.000929367 0.475144 0.0496411 255 0 0
0.299841 0.112819 0.0266876 0 255 0
0.0656313 -0.395798 0.00682395 128 128 0
0.0895095 -0.132685 0.0127048 0 255 0
0.0327589 -0.4695 -0.0226162 128 128 0
-0.063864 0.0434113 0.0415345 0 255 0
-0.0353728 0.33384 0.00330194 255 0 0
-0.0492129 0.0744303 -0.058194 0 255 0
0.00228016 0.0784697 -0.0623884 0 255 0
-0.089001 0.050982 0.0085114 0 255 0
0.334565 0.0544662 0.0921795 0 255 0
-0.0789545 0.0985744 0.0265462 0 255 0
-0.0884715 -0.01422 -0.0228009 0 255 0
0.0685425 0.256127 0.0558233 255 0 0
-0.032475 -0.157234 -0.0520735 0 255 0
0.0486613 0.0818074 -0.0512831 0 255 0
0.177123 0.220678 -0.0299657 255 255 0
0.185606 0.227275 -0.013875 255 255 0
0.0543895 -0.388252 0.0135792 128 128 0
-0.00959883 -0.190255 -0.0127856 0 255 0
-0.0541203 -0.344968 0.00426114 128 0 128
-0.0262599 -0.463508 -0.0106417 128 0 128
0.083405 0.194137 0.0132777 255 0 0
0.0291863 0.0617311 -0.0644888 0 255 0
0.0533117 -0.322958 0.00649155 128 128 0
-0.0263311 0.179772 0.0679832 255 0 0
-0.0257849 0.339294 -0.0420934 255 0 0
0.0651096 -0.207307 -0.0363967 0 255 0
0.321596 0.076157 0.0466161 0 255 0
0.254498 0.101745 0.0197104 0 255 0
-0.234428 0.178121 0.0217752 0 0 255
0.0609727 -0.475928 0.0430856 128 128 0
-0.0574528 -0.482299 -0.0402912 128 0 128
-0.295473 0.10614 0.0209416 0 255 0
-0.0464248 0.431978 -0.0153101 255 0 0
0.0947716 -0.104737 0.00345029 0 255 0
0.13751 0.224061 -0.0352027 255 0 0
-0.0780938 -0.33405 -0.00246029 128 0 128
0.0122382 0.474994 0.0436541 255 0 0
0.0848669 0.0301053 -0.0174481 0 255 0
-0.0952604 0.26965 -0.0450905 255 0 0
0.0265569 -0.325175 -0.0203386 128 128 0
0.0301766 0.394123 0.0156786 255 0 0
-0.00817633 -0.131262 -0.0222673 0 255 0
-0.0395825 0.0625164 -0.0659119 0 255 0
0.0407472 -0.282603 -0.0501022 0 255 0
-0.0465212 0.257943 -0.0754355 255 0 0
-0.0187232 -0.30727 0.00221248 128 0 128
0.0927041 0.269601 -0.0438913 255 0 0
-0.0405029 0.225451 0.0604502 255 0 0
0.142899 0.25278 0.0307763 255 0 0
-0.00141634 0.374639 0.0449452 255 0 0
-0.0122077 0.341681 0.0231754 255 0 0
-0.019538 -0.362308 -0.0106144 128 0 128
-0.0912205 -0.0124139 -0.00250108 0 255 0
0.0158172 0.373509 0.0427667 255 0 0
-0.0193322 -0.109561 0.0343563 0 255 0
0.0864 -0.425784 -0.0152965 128 128 0
0.0777953 -0.323504 -0.0495816 128 128 0
0.067967 -0.125185 0.0400749 0 255 0
0.170831 0.244042 -0.00812289 255 0 0
-0.0903204 0.223698 -0.0150113 255 0 0
-0.0592544 0.124019 0.047099 0 255 0
0.0301211 -0.19998 0.024726 0 255 0
-0.0489927 0.102675 -0.0497106 0 255 0
0.280504 0.129915 0.0463747 0 255 0
0.065363 -0.280467 0.0238044 0 255 0
-0.0496463 0.439109 0.0112413 255 0 0
0.0353066 -0.50416 0.0944105 128 128 0
0.0864041 0.298392 0.0300566 255 0 0
0.0206366 -0.380061 -0.0205726 128 128 0
-0.0691722 -0.0449262 0.0387508 0 255 0
-0.0259229 0.169727 -0.0718934 255 0 0
0.0479894 -0.0827523 -0.0471395 0 255 0
-0.0296414 -0.490741 0.0511422 128 0 128
0.0230245 -0.176548 0.0226163 0 255 0
-0.0933184 0.24343 -0.00335544 255 0 0
-0.0910603 -0.0200506 -0.0185642 0 255 0
0.0697297 -0.325857 0.0206841 128 128 0
-0.0839006 -0.400987 -0.00357492 128 0 128
-0.0956873 -0.0757955 0.00307802 0 255 0
-0.0692773 -0.50776 0.0879334 128 0 128
0.299681 0.114574 0.0331229 0 255 0
0.180425 0.230857 -0.0216544 255 255 0
0.0785623 -0.118024 0.0322833 0 255 0
0.0498812 0.105893 0.0600837 0 255 0
0.0723724 -0.211936 0.0261411 0 255 0
0.0272201 -0.107817 0.0391448 0 255 0
-0.312008 0.0589991 0.0621352 0 255 0
0.037226 -0.293329 0.00528708 128 128 0
0.0561596 0.223905 0.0624785 255 0 0
-0.0437833 0.0398008 0.0553741 0 255 0
-0.0267787 -0.195487 -0.0356272 0 255 0
-0.105015 0.238761 0.019642 255 0 0
0.0493977 -0.512379 -0.0105178 128 128 0
-0.0829372 -0.0940315 -0.0311514 0 255 0
-0.00646747 -0.154823 -0.00907891 0 255 0
-0.0873658 0.310459 -0.0182501 255 0 0
-0.0201647 0.401172 -0.0402983 255 0 0
0.0876178 -0.082347 0.0273015 0 255 0
-0.12145 0.278967 -0.032762 255 0 0
0.0321953 0.346051 -0.0216005 255 0 0
0.0530923 -0.0508721 -0.0620223 0 255 0
0.0744305 0.295634 0.0339437 255 0 0
-0.0297017 0.321366 0.0166046 255 0 0
-0.00573965 0.374966 0.0329076 255 0 0
-0.0111974 0.0244919 0.0605238 0 255 0
0.0331146 -0.476073 0.024673 128 128 0
0.0731826 -0.463326 -0.00465016 128 128 0
-0.0841944 -0.300247 -0.0390928 128 0 128
0.0611498 -0.166012 -0.0413562 0 255 0
0.0362356 -0.0982697 0.0449732 0 255 0
-0.0933589 0.246297 -0.019279 255 0 0
-0.0944143 -0.0756349 0.00889134 0 255 0
0.00672893 0.000739414 -0.076257 0 255 0
-0.0313922 -0.234586 -0.0388623 0 255 0
-0.145964 0.190769 -0.0265602 255 0 0
0.0240284 -0.0454546 0.051056 0 255 0
-0.207956 0.147546 0.0226054 0 0 255
-0.0438689 0.114932 0.0615494 0 255 0
0.0772287 0.133742 0.00663672 255 255 0
-0.0382485 0.472723 -0.00510544 255 0 0
-0.0297785 0.363672 0.0077342 255 0 0
0.0337462 -0.351471 -0.0415722 128 128 0
0.00868069 0.0298466 0.0609546 0 255 0
0.0532533 -0.0635391 -0.0527098 0 255 0
0.322277 0.0690354 0.0857539 0 255 0
0.0636456 -0.263286 0.0267607 0 255 0
0.0116144 -0.0279829 -0.0612581 0 255 0
-0.0830527 0.312147 -0.0300455 255 0 0
0.00383997 0.317803 -0.0586549 255 0 0
-0.0398284 0.470302 0.00336248 255 0 0
-0.114896 0.212197 0.00331715 255 0 0
0.00907988 0.448994 0.0524195 255 0 0
0.020028 -0.209277 0.0137029 0 255 0
