ply
format ascii 1.0
comment Created by Open3D
element vertex 739
property double x
property double y
property double z
property uchar red
property uchar green
property uchar blue
end_header
0.0559277 0.180289 -0.044604 0 255 0
0.0688696 -0.302695 0.00364787 128 128 0
0.0694542 0.175873 0.0335282 0 255 0
0.049681 0.180839 0.0620707 0 255 0
0.00122064 0.186438 -0.0466566 0 255 0
0.306895 0.0453113 0.0379507 128 128 0
-0.0921806 0.27905 -0.0620266 0 255 0
0.0280421 -0.321136 0.0527406 128 128 0
0.0418171 -0.242682 -0.040356 128 128 0
0.0695308 -0.183229 -0.0118525 128 128 0
-0.0345469 -0.038196 0.015482 128 0 128
-0.0714213 -0.243743 0.0198011 128 0 128
-0.189683 0.143974 -0.0150223 0 0 255
0.00197527 0.209901 0.00979512 0 255 0
-0.0826801 -0.315858 -0.00826821 128 0 128
0.00669199 0.110408 -0.021201 0 255 0
0.0705504 0.0102731 0.0376289 128 128 0
-0.0012112 0.165576 0.0236364 0 255 0
-0.052598 0.176009 0.0362523 0 255 0
-0.0320427 -0.447851 -0.0424391 128 0 128
0.285376 0.10423 -0.0259197 255 255 0
0.0215132 0.149141 0.0346614 0 255 0
-0.299358 0.0546591 0.0208994 128 0 128
-0.0774503 -0.433687 -0.0129838 128 0 128
0.0703433 -0.223785 0.0348952 128 128 0
0.0585878 -0.120337 -0.011416 128 128 0
-0.0308727 -0.45299 0.00499669 128 0 128
-0.267914 0.127447 0.00818296 0 0 255
0.036942 -0.359019 0.0186234 128 128 0
0.0193912 -0.228298 0.0220129 128 128 0
-0.015106 0.180635 0.0752674 0 255 0
-0.215959 0.191656 -0.0383443 0 0 255
0.0256625 -0.420226 0.0343065 128 128 0
-0.0641427 -0.4338 -0.0638906 128 0 128
0.0563532 -0.447266 0.055652 128 128 0
-0.293303 0.0963535 0.0212009 0 0 255
0.0398993 -0.0317976 -0.0645521 128 128 0
0.0207998 0.379367 0.0563226 255 0 0
-0.0499703 0.0135531 -0.0660015 128 0 128
0.187706 0.270353 0.0895086 0 255 255
0.228657 0.247025 0.0960016 255 255 0
0.218529 0.278334 0.0508122 0 255 255
-0.0990612 0.00787527 -0.00712878 128 0 128
0.0201718 0.166334 -0.0643535 0 255 0
-0.0993745 0.170406 -0.0262088 0 255 0
0.0356756 -0.425438 0.00579162 128 128 0
-0.0660982 -0.34577 0.0441786 128 0 128
-0.0381773 0.439897 -0.0323953 255 0 0
-0.0997119 0.0465113 -0.0133562 128 0 128
0.0716424 0.0777261 0.0396495 0 255 0
-0.0687217 0.168815 -0.063678 0 255 0
0.228679 0.207488 0.0735615 255 255 0
-0.012255 0.0428509 0.0901542 128 0 128
0.09968 0.291495 0.0249617 0 255 0
0.02043 0.440504 0.0401448 255 0 0
0.189113 0.259968 0.0538306 0 255 255
0.00348526 0.13817 -0.0647415 0 255 0
-0.0466096 -0.322715 0.0601288 128 0 128
0.0370556 -0.399432 0.058324 128 128 0
-0.0592804 -0.38795 0.0527538 128 0 128
0.0717047 -0.481676 -0.0144782 0 128 255
0.0708247 -0.512699 -0.00746168 0 128 255
-0.0469926 -0.239789 0.0553015 128 0 128
-0.0986747 0.291597 -0.0339603 0 255 0
0.0771877 0.110654 -0.0205495 0 255 0
-0.0145292 0.114546 -0.064133 0 255 0
-0.337535 0.0428598 0.00281118 128 0 128
0.234612 0.105273 0.022804 255 255 0
0.0205545 0.41836 -0.0305611 255 0 0
-0.0313444 0.139072 -0.0648277 0 255 0
0.0090176 0.160675 0.0719785 0 255 0
0.0728469 -0.0435525 0.0551062 128 128 0
-0.288997 0.102585 -0.0327538 0 0 255
-0.0307219 -0.418246 0.00523091 128 0 128
-0.0809811 0.186893 0.0235192 0 255 0
-0.0305049 -0.367157 0.00511462 128 0 128
0.220593 0.288096 0.0894761 0 255 255
0.14833 0.263415 0.0343322 0 255 0
0.0687332 -0.474239 0.0379992 128 128 0
-0.0321338 -0.200421 0.0374783 128 0 128
-0.0101629 0.0515513 -0.0636996 128 0 128
-0.175123 0.15669 -0.0480807 0 0 255
-0.0670209 -0.439901 0.0551302 128 0 128
-0.0311351 0.440605 0.056969 255 0 0
0.0161074 -0.353778 -0.0245475 128 128 0
-0.0315116 0.323995 -0.0300372 0 255 0
-0.0302417 -0.315283 0.00345221 128 0 128
-0.0858031 0.0925065 -0.0371913 0 255 0
0.036809 -0.351789 0.0569927 128 128 0
-0.0300194 -0.114405 0.0406487 128 0 128
0.073006 -0.501629 0.026473 0 128 255
0.0600505 -0.0643034 -0.0469217 128 128 0
0.136381 0.25763 0.0641914 0 255 0
0.054801 -0.46837 -0.0641665 128 128 0
-0.248566 0.091712 0.000650501 0 0 255
0.0427269 -0.285067 0.0384954 128 128 0
0.0153389 0.0266295 -0.064827 128 128 0
0.176761 0.208189 0.00172225 255 255 0
0.258715 0.0924378 -0.0311344 255 255 0
-0.14721 0.174287 -0.0333736 0 255 0
0.277784 0.0972583 0.0236716 255 255 0
-0.249225 0.159413 -0.0332818 0 0 255
0.153146 0.223686 0.0590104 0 255 0
-0.131335 0.274922 -0.0182056 0 255 0
-0.0258696 0.208682 0.0588565 0 255 0
0.0710127 -0.414811 0.0388538 128 128 0
-0.0453128 -0.284216 0.0550959 128 0 128
0.0716399 0.147046 0.0253789 0 255 0
0.0168756 -0.324951 -0.014066 128 128 0
-0.0980275 -0.0618576 -0.0172232 128 0 128
0.0728426 -0.323936 -0.0474484 128 128 0
0.0707101 0.112032 0.0317665 0 255 0
0.182453 0.151274 0.0381539 255 255 0
-0.0641192 -0.404583 -0.0656687 128 0 128
0.0728701 0.260182 -0.0481066 0 255 0
0.0681946 -0.380398 0.0349951 128 128 0
-0.0607211 -0.268052 0.0359931 128 0 128
-0.0817009 0.204422 -0.0648701 0 255 0
0.0551015 0.0159149 -0.0537263 128 128 0
-0.0145332 0.344118 0.0727862 0 255 0
0.0732382 -0.440272 0.0204409 128 128 0
0.124458 0.223057 0.0560426 0 255 0
-0.0984315 0.0763953 -0.0134257 0 255 0
0.00445191 0.330206 -0.0321704 0 255 0
0.218108 0.210653 0.0466756 255 255 0
0.0368287 -0.316575 0.0217285 128 128 0
0.161267 0.291705 0.0367442 0 255 255
-0.0238975 -0.397413 -0.0260922 128 0 128
0.189492 0.224052 0.0242768 255 255 0
0.22088 0.243772 0.0512057 255 255 0
0.139896 0.245363 0.000251024 0 255 0
0.238211 0.142118 -0.0301265 255 255 0
0.00247826 -0.125456 0.026029 128 128 0
-0.0538124 0.308251 -0.0484706 0 255 0
0.0874968 -0.125418 0.000284192 128 128 0
-0.0736301 -0.412491 0.0463025 128 0 128
0.0953505 0.182697 0.00491 0 255 0
-0.013291 -0.176976 -0.0249784 128 0 128
0.0933151 0.276787 -0.0322928 0 255 0
-0.335578 0.0478764 0.0583717 128 0 128
0.0456298 0.295081 0.0216403 0 255 0
0.00433285 0.229865 -0.0699129 0 255 0
-0.0601079 -0.306826 0.040529 128 0 128
-0.0561752 -0.49004 0.073108 255 128 0
0.0894529 0.0730902 0.00238388 128 128 0
-0.0452863 -0.262277 0.00635877 128 0 128
0.0942854 0.10723 0.00291963 0 255 0
-0.0303666 0.29541 -0.0644276 0 255 0
0.020188 0.049197 0.0790812 128 128 0
-0.203592 0.193941 -0.0104666 0 0 255
-0.035546 0.0560617 0.0722416 128 0 128
-0.0144399 0.421396 0.0721779 255 0 0
-0.0996052 0.11915 -0.0214285 0 255 0
-0.0988287 0.199641 -0.0279646 0 255 0
-0.317031 0.054153 -0.0136022 128 0 128
-0.0977465 -0.105835 -0.00784585 128 0 128
0.0262604 -0.00745356 -0.0287029 128 128 0
0.244193 0.143853 0.00597601 255 255 0
-0.0287931 -0.11363 -0.051574 128 0 128
-0.217166 0.140176 0.00443662 0 0 255
-0.116059 0.265223 0.00424944 0 255 0
-0.055144 0.344109 0.00782942 0 255 0
0.218174 0.230405 0.0244381 255 255 0
0.234958 0.0924378 -0.00455996 255 255 0
0.103844 0.23934 0.0429426 0 255 0
0.0293156 -0.259382 0.0485913 128 128 0
-0.0124604 0.389953 0.0752308 255 0 0
0.306931 0.0840396 -0.00186104 128 128 0
0.0537957 0.0294696 0.0607602 128 128 0
0.113078 0.219852 -0.0153891 0 255 0
0.034468 -0.167747 -0.0338208 128 128 0
0.0714756 -0.345168 0.0357827 128 128 0
-0.135135 0.235188 0.00602453 0 255 0
0.0284788 0.246021 0.0556248 0 255 0
-0.0830465 -0.416699 -0.0479878 128 0 128
0.0548941 -0.29815 -0.050879 128 128 0
-0.0563807 0.37053 -0.0171012 255 0 0
0.037411 0.0884698 -0.0485981 0 255 0
0.0186378 0.201586 -0.0642461 0 255 0
-0.0641257 -0.498281 -0.0652715 255 128 0
-0.0294144 -0.377208 -0.0480641 128 0 128
0.0180328 -0.14243 0.0448947 128 128 0
0.0799673 0.139175 -0.0131454 0 255 0
-0.0161043 0.00224882 0.0741555 128 0 128
0.0414666 0.292213 -0.0509632 0 255 0
-0.189251 0.196503 -0.0499356 0 0 255
0.187752 0.149531 -0.0146572 255 255 0
0.144431 0.173925 0.00359648 0 255 0
-0.0328301 -0.340997 0.0426173 128 0 128
0.0256193 0.190942 -0.0250932 0 255 0
0.0885953 -0.016032 0.00313533 128 128 0
0.0183811 -0.407708 -0.0124541 128 128 0
0.0728349 -0.132464 0.055677 128 128 0
-0.0321784 -0.0280229 0.0574239 128 0 128
-0.136065 0.249729 -0.047622 0 255 0
0.0350545 -0.496919 0.0255577 0 128 255
-0.00213775 -0.0164024 0.0543334 128 0 128
-0.0145629 0.137189 0.0767079 0 255 0
0.0457308 -0.102406 -0.0363125 128 128 0
0.0554571 -0.180099 0.055219 128 128 0
0.0578399 0.213203 0.0587022 0 255 0
-0.0499811 0.00654736 0.0570167 128 0 128
0.072431 -0.238217 -0.030317 128 128 0
0.189988 0.199211 0.0404643 255 255 0
0.0161185 -0.385637 -0.0310542 128 128 0
-0.0669229 0.0398094 -0.0507247 128 0 128
-0.0344131 -0.486452 0.0529057 255 128 0
0.0448731 0.312276 -0.0305506 0 255 0
0.148242 0.291123 0.0731162 0 255 0
0.186799 0.1849 -0.0152166 255 255 0
-0.113766 0.223613 -0.0486811 0 255 0
-0.0635479 -0.359192 -0.00572949 128 0 128
0.0256718 -0.383409 0.0352331 128 128 0
0.0281015 0.365469 0.000765637 255 0 0
0.103896 0.221263 0.0160087 0 255 0
0.121076 0.274129 0.0396988 0 255 0
-0.0487802 -0.0153194 -0.069473 128 0 128
-0.0263932 -0.242328 -0.0508855 128 0 128
-0.0813785 -0.40394 -0.00882836 128 0 128
0.0718738 0.0402836 0.0407701 128 128 0
-0.0679482 -0.124301 -0.0513329 128 0 128
0.0164705 -0.254858 0.00856641 128 128 0
0.073749 -0.283062 0.0279216 128 128 0
0.0320141 -0.390678 0.00623105 128 128 0
0.00330047 0.386711 -0.0359777 255 0 0
-0.0748212 -0.469053 0.0545444 128 0 128
0.00576043 0.115502 0.0760516 0 255 0
-0.0570429 -0.247777 -0.0655587 128 0 128
-0.24453 0.120799 -0.0508833 0 0 255
-0.0641076 -0.121232 0.0419259 128 0 128
-0.0242287 -0.356562 -0.0279518 128 0 128
-0.0644943 0.0733322 -0.046781 128 0 128
-0.080873 0.0918412 0.0280468 0 255 0
0.0339757 -0.53082 -0.0142123 0 128 255
0.00108909 0.224672 0.0657041 0 255 0
-0.0358609 0.0852628 -0.0286778 0 255 0
0.0256456 -0.453747 0.0404399 128 128 0
0.201556 0.125474 0.0195117 255 255 0
0.0713801 -0.531881 0.0259747 0 128 255
-0.0132107 -0.077956 -0.0485593 128 0 128
-0.0351827 -0.406365 0.0587936 128 0 128
-0.0732547 -0.371182 0.0332746 128 0 128
0.131943 0.302885 0.0316476 0 255 0
-0.147709 0.184777 -0.00664425 0 255 0
-0.0512026 -0.173352 -0.0565918 128 0 128
-0.0263865 -0.207559 0.00418209 128 0 128
0.0332737 0.247342 -0.0639016 0 255 0
-0.000383084 0.077436 0.0682002 0 255 0
0.233408 0.184485 0.0515872 255 255 0
0.0339151 -0.0221303 0.0639773 128 128 0
-0.227823 0.108179 -0.0121083 0 0 255
-0.3145 0.0616146 0.044084 128 0 128
0.0585593 0.0800401 -0.0306062 0 255 0
-0.113335 0.220075 -0.0124015 0 255 0
0.0361414 -0.199762 -0.0343721 128 128 0
0.0939811 0.241874 -0.0299665 0 255 0
-0.0256362 0.109709 0.0720908 0 255 0
0.0170157 -0.0118507 -0.0683785 128 128 0
-0.0646189 0.134538 0.0436469 0 255 0
-0.045245 -0.497337 0.0227777 255 128 0
-0.210813 0.124012 -0.0301314 0 0 255
0.0312479 -0.0618026 -0.0520009 128 128 0
0.0057877 0.44494 -0.0325026 255 0 0
-0.00933648 0.0121389 -0.0733864 128 0 128
0.0396936 -0.325998 -0.0518482 128 128 0
0.218663 0.148265 0.0279111 255 255 0
-0.0546869 0.108848 0.058212 0 255 0
0.0751978 -0.267925 -0.0337801 128 128 0
-0.00972337 -0.103472 -0.0308921 128 0 128
0.267626 0.0740734 -0.00594606 128 128 0
-0.0648584 0.110314 -0.0478227 0 255 0
0.0185088 -0.0797389 -0.0310435 128 128 0
-0.0478196 0.419913 0.0382669 255 0 0
-0.0266043 -0.0580546 -0.0304443 128 0 128
0.0505876 0.0934966 0.0554717 0 255 0
0.306564 0.0229086 0.00837057 128 128 0
0.0386993 -0.374111 -0.051817 128 128 0
0.0296821 -0.21952 0.0473725 128 128 0
-0.0292488 -0.150634 -0.0508331 128 0 128
-0.0358284 -0.45206 0.0509671 128 0 128
-0.0766516 0.274318 0.00483452 0 255 0
0.0881641 -0.0510086 -0.014107 128 128 0
-0.0525237 0.421014 -0.0151402 255 0 0
-0.0807744 -0.0344417 0.0346205 128 0 128
0.121846 0.262524 -0.0173738 0 255 0
0.0604587 -0.0792765 0.0374389 128 128 0
0.0161859 0.177166 0.0483649 0 255 0
-0.0734932 -0.347019 -0.070138 128 0 128
0.0184474 -0.272465 -0.0278024 128 128 0
-0.00884041 0.164709 -0.0684773 0 255 0
0.0505314 -0.0823987 0.0664777 128 128 0
-0.0260513 0.0862231 -0.0576926 0 255 0
-0.168867 0.164989 -0.00929999 0 0 255
0.0728287 -0.385148 -0.041081 128 128 0
0.0561855 -0.254946 0.0366134 128 128 0
-0.140776 0.198504 -0.05092 0 255 0
0.0538148 0.206985 -0.0548684 0 255 0
-0.0810656 -0.2514 -0.0477416 128 0 128
-0.0841466 -0.020169 -0.0408705 128 0 128
-0.0812248 0.122503 0.022996 0 255 0
-0.0109249 0.254841 -0.0658504 0 255 0
0.0516217 -0.400729 -0.0558988 128 128 0
-0.0482169 -0.127252 -0.0260929 128 0 128
0.153234 0.320488 0.041055 0 255 0
0.0888674 -0.0871358 0.0347513 128 128 0
-0.00981651 0.0672306 0.0427339 128 0 128
-0.0895309 -0.18757 -0.038646 128 0 128
-0.0017228 0.00977438 0.0424474 128 0 128
0.0372376 -0.467203 0.065059 128 128 0
-0.0594025 -0.152257 -0.0390523 128 0 128
-0.0641462 0.0338985 0.0552901 128 0 128
0.0227745 0.380641 0.0256776 255 0 0
-0.0321808 -0.0622952 -0.0665676 128 0 128
-0.050765 -0.0910205 0.0378878 128 0 128
0.00197348 -0.0994245 0.0411429 128 128 0
-0.0466063 -0.367551 -0.0744034 128 0 128
-0.039556 0.274325 0.026262 0 255 0
0.04181 0.133294 -0.0487946 0 255 0
-0.064007 -0.0595313 -0.0607856 128 0 128
0.0565779 0.0610488 0.0594504 128 128 0
-0.0665416 -0.461753 -0.0113406 128 0 128
-0.0641642 0.210816 0.0394768 0 255 0
0.0407089 0.140392 0.057411 0 255 0
0.0381539 -0.105443 0.0317627 128 128 0
-0.0646002 0.282735 -0.0700702 0 255 0
0.0206017 0.0928128 0.0562496 0 255 0
0.108571 0.291076 -0.00693042 0 255 0
0.0456584 -0.495739 -0.066402 0 128 255
-0.0119152 -0.143237 -0.0265925 128 0 128
-0.0128367 0.00100281 -0.0469905 128 0 128
-0.0825364 0.0609015 0.0273407 128 0 128
-0.31689 0.0784553 0.0173518 0 0 255
0.0430624 -0.210629 0.0205327 128 128 0
-0.0197841 0.187367 0.037523 0 255 0
0.235718 0.176528 0.00262642 255 255 0
-0.0470825 -0.175711 0.0511879 128 0 128
0.0267047 -0.00625771 0.00296538 128 128 0
-0.0550592 -0.0679815 -0.0336321 128 0 128
0.000110373 -0.00643549 0.0155099 128 0 128
0.0362943 0.202489 0.00116251 0 255 0
-0.092482 0.225034 0.0229483 0 255 0
-0.0364903 -0.107713 -0.00854156 128 0 128
0.0161819 -0.198144 0.0254428 128 128 0
-0.0337324 0.151027 0.035493 0 255 0
-0.042894 -0.334412 -0.073089 128 0 128
-0.000383084 0.0449284 0.0273461 128 0 128
0.226567 0.202666 0.0179643 255 255 0
-0.0722664 -0.375241 -0.0644487 128 0 128
0.12753 0.278943 0.0119252 0 255 0
-0.0611893 -0.211088 -0.0579566 128 0 128
0.0587998 -0.497238 0.0520204 0 128 255
-0.0641347 -0.0645466 0.0448104 128 0 128
-0.0423571 0.179405 -0.0712401 0 255 0
0.0014015 0.140143 -0.0268045 0 255 0
0.0902818 -0.0962368 0.00354753 128 128 0
0.0304345 0.26955 0.0396066 0 255 0
0.0585127 -0.312002 0.0400877 128 128 0
-0.0499729 -0.385536 -0.00570362 128 0 128
-0.0597962 -0.30048 -0.0739714 128 0 128
-0.206855 0.151518 -0.0450344 0 0 255
0.0148742 0.00976297 0.0730134 128 128 0
0.0209026 0.224331 -0.0121074 0 255 0
-0.157722 0.218694 -0.000212952 0 0 255
-0.00619816 0.123157 0.00118201 0 255 0
-0.0899 0.143785 -0.00482271 0 255 0
0.0159051 -0.0800265 0.0599769 128 128 0
0.207219 0.179818 0.0221419 255 255 0
0.0398199 -0.232736 -0.000450684 128 128 0
-0.0675747 -0.494432 0.00458733 255 128 0
0.268668 0.125826 -0.00161278 255 255 0
-0.0822871 -0.271436 -0.002413 128 0 128
-0.0712621 -0.272549 -0.0642961 128 0 128
0.0029275 0.408881 0.0200983 255 0 0
0.0444862 -0.112339 0.0603223 128 128 0
0.00842375 0.276692 -0.0646285 0 255 0
-0.0394652 0.463013 0.0177204 255 0 0
0.0699948 0.208328 0.0304244 0 255 0
-0.0144487 0.215254 -0.0465536 0 255 0
0.024924 0.158541 -0.0259697 0 255 0
0.00529225 -0.0385928 -0.0637689 128 128 0
0.0691792 -0.0903098 -0.0208445 128 128 0
0.0733875 -0.40041 0.0105874 128 128 0
0.0644852 -0.206171 -0.0311309 128 128 0
0.0203823 -0.0123904 0.0350982 128 128 0
-0.0393282 -0.277228 -0.0673885 128 0 128
-0.00274144 0.0329795 -0.0431632 128 0 128
0.0604287 -0.385843 -0.0117807 128 128 0
0.0532911 -0.443856 -0.0142711 128 128 0
0.0923695 -0.0541963 0.0147799 128 128 0
-0.066538 -0.528494 -0.0548469 255 128 0
0.0388862 -0.0289725 -0.0104028 128 128 0
0.000381991 0.422873 -0.00776642 255 0 0
0.297803 0.0765574 0.0261321 128 128 0
-0.163115 0.201843 -0.0261327 0 0 255
0.0363514 0.174493 0.0224675 0 255 0
0.015986 0.107957 -0.0493001 0 255 0
-0.0311022 0.222393 0.00232739 0 255 0
-0.0794819 -0.0865725 0.0314782 128 0 128
-0.0146662 0.317327 0.0303928 0 255 0
-0.0319609 0.254671 0.00397415 0 255 0
-0.0529478 0.254799 -0.077634 0 255 0
-0.0130861 -0.144291 0.00199951 128 0 128
-0.0563769 -0.123701 0.0142501 128 0 128
-0.0149762 0.0304701 0.0633911 128 0 128
0.0114214 0.351395 0.0566556 0 255 0
-0.0553186 -0.0938365 -0.0590037 128 0 128
-0.0287491 -0.158771 0.023705 128 0 128
-0.279716 0.073158 0.00603428 128 0 128
0.0284886 -0.180144 0.0455491 128 128 0
-0.0894128 -0.154082 -0.038533 128 0 128
-0.0979814 0.240222 -0.0315662 0 255 0
-0.0701972 -0.210673 0.0164966 128 0 128
0.0444862 -0.140143 0.0334943 128 128 0
0.0728469 -0.0229163 -0.0370949 128 128 0
-0.0266932 -0.0330659 -0.0741962 128 0 128
0.00189144 -0.0303782 -0.0279291 128 128 0
0.0695251 0.28119 0.0323692 0 255 0
0.0138275 0.146665 0.00442479 0 255 0
0.163447 0.192472 0.0485863 255 255 0
-0.0820703 0.0121206 0.0330366 128 0 128
0.170629 0.147619 0.0106544 255 255 0
-0.0836462 0.158078 0.0194622 0 255 0
-0.083672 -0.323084 -0.0581711 128 0 128
-0.0817976 0.00829462 -0.0341344 128 0 128
-0.038183 0.404961 0.0624107 255 0 0
-0.0877703 -0.183924 -0.00813718 128 0 128
-0.0616476 -0.46308 -0.0619796 128 0 128
-0.0388629 0.14225 0.0621486 0 255 0
-0.0611052 0.063709 0.0566636 128 0 128
-0.0107055 0.269196 0.0208034 0 255 0
-0.0135643 0.0650704 0.00816734 128 0 128
-0.0287445 -0.196973 -0.0494078 128 0 128
-0.0550658 -0.0961531 -0.0282695 128 0 128
-0.0481759 0.380564 0.0355591 255 0 0
0.0388952 -0.303437 -0.0258418 128 128 0
0.0365115 -0.101814 0.00103632 128 128 0
0.0283976 -0.470479 -0.0102242 128 128 0
-0.00258969 0.253048 0.0481947 0 255 0
-0.0129071 0.229666 0.0345979 0 255 0
-0.0221954 0.193442 0.00817277 0 255 0
-0.0570181 0.342782 -0.0250948 0 255 0
-0.0198157 -0.099211 0.0179414 128 0 128
0.0654898 -0.510145 -0.0502656 0 128 255
0.00828536 0.0282573 -0.0129647 128 128 0
0.0629027 -0.140943 -0.0328467 128 128 0
-0.0877639 -0.124533 0.0263241 128 0 128
0.0534501 -0.168652 0.0224894 128 128 0
0.0570957 0.219863 -0.025865 0 255 0
-0.0288387 0.204492 -0.0737092 0 255 0
-0.0355383 -0.0631554 0.0441908 128 0 128
-0.00820397 -0.0450295 0.0562439 128 0 128
-0.0314387 0.25069 0.0431139 0 255 0
-0.0174132 0.413334 0.0429302 255 0 0
-0.0429879 -0.232096 0.00849949 128 0 128
-0.061828 -0.529073 -0.0104514 255 128 0
-0.0506697 -0.0887575 0.00742194 128 0 128
0.0365178 -0.532159 -0.0440639 0 128 255
-0.0442754 0.0742287 0.0180979 128 0 128
-0.0546858 -0.318091 -0.0484838 128 0 128
0.00954576 -0.16996 0.0248662 128 128 0
0.0563384 0.241114 0.0496112 0 255 0
0.0506653 -0.0015724 -0.0123434 128 128 0
-0.0792875 -0.23628 -0.00668686 128 0 128
-0.0172165 0.420423 -0.0456537 255 0 0
0.0775637 -0.42166 -0.0104877 128 128 0
-0.0224491 0.402547 -0.0078409 255 0 0
-0.0313794 0.149677 -0.0201226 0 255 0
-0.0476107 -0.0580716 -0.00394891 128 0 128
0.0733107 0.296729 -0.0279333 0 255 0
-0.0263855 0.0215114 -0.0294179 128 0 128
-0.0726701 -0.499833 -0.0367681 255 128 0
-0.289479 0.111874 -0.00418786 0 0 255
-0.156723 0.222637 -0.0457866 0 255 0
0.00685302 0.464778 0.0313988 255 0 0
0.0772624 -0.159399 0.044083 128 128 0
-0.0476107 0.182757 -0.0286422 0 255 0
0.0350528 0.226562 -0.044306 0 255 0
-0.0243016 -0.0330926 -0.015015 128 0 128
0.106218 0.245857 0.00070218 0 255 0
0.00413685 0.304418 0.00415096 0 255 0
0.0521406 -0.0705307 0.00707103 128 128 0
-0.0311022 0.0960417 0.0469219 0 255 0
0.0292651 -0.525052 0.0243623 0 128 255
-0.000901357 0.30142 -0.0522567 0 255 0
-0.0503422 -0.189019 0.00295322 128 0 128
0.0272794 0.043832 0.0368229 128 128 0
-0.0188889 0.0648305 -0.0390992 128 0 128
0.0516217 0.261205 -0.0240003 0 255 0
0.0183849 -0.24272 -0.0235961 128 128 0
-0.0569274 0.241189 0.0327179 0 255 0
-0.0878539 0.103263 -0.000581115 0 255 0
-0.00745816 0.266353 -0.0391665 0 255 0
0.00584038 0.0882526 0.0279345 0 255 0
0.0310644 -0.0587389 -0.00904946 128 128 0
-0.0625982 0.241256 0.00055319 0 255 0
-0.0261637 0.0487032 -0.016451 128 0 128
-0.0387197 -0.524309 -0.0599324 255 128 0
0.212887 0.157595 -0.0268966 255 255 0
0.0397695 -0.186741 0.00372926 128 128 0
0.0114692 -0.0419168 0.0198069 128 128 0
0.0518333 -0.434463 -0.0567193 128 128 0
0.010476 0.0557751 -0.0257735 128 128 0
-0.0259115 0.374194 0.055572 255 0 0
0.0208685 0.0655469 -0.0563022 128 128 0
0.023261 0.117586 0.0342232 0 255 0
-0.0948924 0.250357 -0.0682145 0 255 0
-0.042894 -0.00854676 -0.0278889 128 0 128
-0.0831449 0.142542 -0.0361335 0 255 0
-0.270324 0.0862091 -0.0175936 0 0 255
0.0492182 0.224748 0.0167291 0 255 0
0.134264 0.189281 0.0379225 0 255 0
-0.309837 0.0876886 -0.0106991 0 0 255
-0.0544351 -0.378546 -0.033435 128 0 128
0.0386999 0.201104 0.032959 0 255 0
0.148435 0.205256 0.00423829 0 255 0
-0.0300215 -0.333863 -0.0450386 128 0 128
-0.0531245 -0.165472 -0.0133252 128 0 128
0.0376613 -0.282592 0.00841209 128 128 0
-0.0736131 -0.122955 -0.00912527 128 0 128
0.062371 -0.356811 -0.053416 128 128 0
0.0374063 -0.530593 0.0527975 0 128 255
-0.0259093 -0.0143339 0.0318854 128 0 128
-0.00274144 0.451898 0.0570428 255 0 0
-0.0580253 0.123177 -0.01156 0 255 0
-0.0397104 -0.528999 0.0547533 255 128 0
0.0547811 -0.336817 0.0117853 128 128 0
0.0492029 -0.277064 -0.0176463 128 128 0
-0.0137095 0.35367 -0.0219357 0 255 0
0.0190778 0.455755 -0.00318638 255 0 0
-0.033364 -0.460127 -0.069701 128 0 128
-0.079716 -0.0521708 -0.0381168 128 0 128
0.00197527 0.176736 -0.00292092 0 255 0
-0.043512 -0.479192 0.000404046 255 128 0
-0.0577033 0.204078 0.00357773 0 255 0
0.0201955 0.254884 -0.0375248 0 255 0
0.0251521 0.0499269 0.00311027 128 128 0
0.0551013 0.0358738 0.0154339 128 128 0
0.0745014 0.228868 -0.0489276 0 255 0
0.24651 0.115422 -0.0177356 255 255 0
-0.0241219 0.289417 -0.0313081 0 255 0
-0.0567528 -0.155314 0.0140558 128 0 128
0.0492029 0.179834 -0.0128 0 255 0
0.0438661 -0.362411 -0.0262906 128 128 0
-0.0499691 -0.0384708 -0.0275185 128 0 128
-0.0814675 -0.166709 0.0254961 128 0 128
-0.269659 0.125011 -0.0337252 0 0 255
-0.0162595 -0.217276 -0.0316384 128 0 128
0.0110244 -0.200777 -0.0158968 128 128 0
0.0228457 0.327331 0.00573408 0 255 0
0.0184755 0.284546 -0.0348017 0 255 0
-0.0427789 0.267927 -0.0461641 0 255 0
-0.0289746 -0.00237117 0.00517164 128 0 128
0.0489769 -0.161994 -0.00828912 128 128 0
0.00141974 0.360145 0.0300955 0 255 0
0.0379241 0.247283 -0.000336148 0 255 0
0.0231297 0.203386 0.0671268 0 255 0
0.0677246 -0.108169 0.0390569 128 128 0
0.0606123 0.306722 -0.00322713 0 255 0
-0.072122 -0.0552308 0.015158 128 0 128
0.170681 0.244222 0.035181 255 255 0
-0.039176 0.115209 0.0149089 0 255 0
-0.0144612 -0.0707115 0.0258342 128 0 128
-0.0921677 -0.147106 0.00581829 128 0 128
0.0188383 -0.0762916 0.0191404 128 128 0
-0.0632804 0.239056 -0.038885 0 255 0
-0.158865 0.24102 -0.0221345 0 0 255
-0.0881633 -0.295722 -0.0498016 128 0 128
0.176612 0.314703 0.0841288 0 255 255
-0.0466542 0.223485 -0.0573077 0 255 0
-0.209292 0.165182 -0.0098292 0 0 255
-0.0756822 0.0341526 -0.0226102 128 0 128
0.0310716 0.429204 -0.00496589 255 0 0
-0.0617262 -0.292474 0.0137127 128 0 128
0.0531091 0.031117 -0.0126835 128 128 0
-0.0429416 -0.141191 0.0423595 128 0 128
-0.0368121 -0.428731 -0.0211949 128 0 128
-0.0371937 -0.36631 0.0554884 128 0 128
0.0469961 -0.416231 -0.0321864 128 128 0
-0.0852189 -0.36893 -0.0262443 128 0 128
-0.072953 -0.499423 0.0507619 255 128 0
0.0271459 0.114915 -0.000203587 0 255 0
-0.0658942 0.157024 -0.0180978 0 255 0
-0.0298898 0.236178 -0.0257264 0 255 0
-0.042894 0.157743 -0.0458953 0 255 0
0.0818131 0.0476483 -0.0155445 128 128 0
0.0504658 0.0551874 -0.0421506 128 128 0
-0.0358189 0.0239248 0.0157339 128 0 128
-0.0434111 -0.290478 -0.00853746 128 0 128
0.0477903 0.129085 0.0244894 0 255 0
-0.058334 -0.0200041 0.047366 128 0 128
0.0164816 0.021701 0.0141702 128 128 0
0.0171786 0.276143 0.0105245 0 255 0
-0.0836467 -0.223241 -0.0433035 128 0 128
-0.0583857 -0.222263 -0.0239808 128 0 128
0.0497785 -0.00878437 0.0320539 128 128 0
-0.0268553 0.372066 -0.00312416 255 0 0
0.0935195 0.0322429 0.00839133 128 128 0
-0.0241474 0.0920026 0.00341692 0 255 0
-0.0612712 -0.286056 -0.0326778 128 0 128
0.0652368 -0.036602 0.00152727 128 128 0
-0.0477619 0.313595 0.0183515 0 255 0
-0.023812 -0.299698 -0.0282427 128 0 128
-0.0384334 -0.520006 -0.0305285 255 128 0
0.0774102 0.273207 6.79228e-05 0 255 0
-0.0190534 0.387492 0.0205809 255 0 0
0.0278133 -0.500133 -0.0141408 0 128 255
0.0814929 -0.351176 -0.0105078 128 128 0
-0.0381773 0.43127 0.00999189 255 0 0
-0.0617609 0.21113 -0.0299923 0 255 0
0.0124299 0.24531 0.0205023 0 255 0
0.0754876 -0.147955 0.0172261 128 128 0
0.0694642 -0.207167 0.00606522 128 128 0
0.0744374 0.0103377 -0.025635 128 128 0
-0.013309 0.451781 -0.00897072 255 0 0
-0.053659 0.0464866 0.0143175 128 0 128
0.0804604 -0.304602 -0.0272757 128 128 0
-0.0804391 -0.336467 -0.0303969 128 0 128
-0.0262859 0.345095 0.0379247 0 255 0
0.0273469 -0.475743 -0.0523448 128 128 0
0.0680119 -0.236113 0.00564523 128 128 0
-0.00834084 0.436819 0.0232477 255 0 0
-0.0798039 -0.521999 0.0273458 255 128 0
-0.0738758 -0.448385 -0.0401649 128 0 128
0.173661 0.24976 0.0755823 255 255 0
-0.0264428 0.338923 0.00790862 0 255 0
0.176034 0.176843 0.0249931 255 255 0
-0.0821232 0.216358 -0.010122 0 255 0
-0.0603409 0.0921363 -0.00415342 0 255 0
-0.0012014 -0.0955419 -0.00357579 128 0 128
-0.24709 0.140654 -0.0113643 0 0 255
0.0206582 -0.138601 -0.0219975 128 128 0
-0.00201361 0.0812654 -0.0170255 0 255 0
-0.00679022 0.20602 -0.0204472 0 255 0
-0.0222319 0.118577 -0.0239918 0 255 0
0.0321633 0.0103552 0.0487184 128 128 0
0.030336 0.0348138 -0.0395267 128 128 0
0.0681266 -0.015252 0.0546163 128 128 0
0.0648789 -0.266637 0.00517423 128 128 0
-0.0012675 0.242232 -0.0211463 0 255 0
-0.0742026 0.0658473 -8.91613e-05 128 0 128
-0.0218878 0.292546 0.00681002 0 255 0
0.323915 0.0579376 0.0179822 128 128 0
0.0422615 0.0951922 0.0271311 0 255 0
0.122413 0.194504 -0.000734883 0 255 0
-0.076181 -0.0118371 -0.0120848 128 0 128
0.0758023 -0.193147 0.0361841 128 128 0
-0.0202987 -0.238079 -0.0102409 128 0 128
-0.0741921 0.0212943 0.00566718 128 0 128
0.287677 0.0553742 0.00407541 128 128 0
-0.0110847 0.271673 -0.0113564 0 255 0
0.0298385 0.417584 0.0256842 255 0 0
-0.0190976 -0.270963 -0.0283905 128 0 128
-0.0413377 0.146741 0.00710704 0 255 0
0.0365729 0.111225 -0.0273088 0 255 0
0.071285 0.199865 -0.00115954 0 255 0
-0.0581976 -0.346772 -0.0459073 128 0 128
0.128227 0.237994 0.0267983 0 255 0
0.00637998 0.136278 0.0554427 0 255 0
0.015833 -0.17173 -0.0111699 128 128 0
0.0620678 0.254914 0.0241105 0 255 0
0.0380679 0.284943 -0.013422 0 255 0
-0.0926282 0.247888 0.00566822 0 255 0
-0.0530769 -0.19351 -0.0344641 128 0 128
0.0468445 -0.0540657 0.060687 128 128 0
-0.0244968 0.123447 0.0401075 0 255 0
0.0465994 -0.0418297 -0.0352008 128 128 0
-0.0349726 -0.484981 -0.0541639 255 128 0
-0.0564436 0.173434 0.00792036 0 255 0
0.0153333 0.408443 0.0485852 255 0 0
-0.0178438 -0.177161 0.00401879 128 0 128
0.0324879 0.072106 -0.016064 128 128 0
0.0752251 0.168305 -0.00938247 0 255 0
0.0440209 0.136263 -0.0141156 0 255 0
-0.0638965 0.281471 -0.0303624 0 255 0
-0.0526992 -0.00719763 0.0222258 128 0 128
0.0254156 -0.441633 -0.0199753 128 128 0
0.0586968 0.104877 0.00450695 0 255 0
0.0223568 0.392169 -0.0135812 255 0 0
-0.0523274 -0.332562 -0.0137849 128 0 128
0.0711017 0.0131405 0.0060594 128 128 0
-0.0381773 0.0364343 0.0419166 128 0 128
-0.0457347 0.40115 0.00950885 255 0 0
0.0859038 0.212911 -0.0258767 0 255 0
-0.0720859 0.233657 -0.0751828 0 255 0
0.042284 -0.0452586 0.0219757 128 128 0
-0.0545535 0.306223 -0.0118047 0 255 0
-0.0969835 -0.0419869 0.0039351 128 0 128
0.0684225 0.242627 -0.00447222 0 255 0
-0.0360999 -0.421704 -0.0571001 128 0 128
0.0162619 0.219971 0.0377831 0 255 0
0.185287 0.291323 0.067106 0 255 255
-0.0533203 0.0160694 -0.0130855 128 0 128
0.00162025 -0.056331 -0.0157344 128 0 128
-0.311697 0.0280645 0.023993 128 0 128
-0.0381414 0.0430111 -0.0606752 128 0 128
-0.0187181 0.176188 -0.026357 0 255 0
-0.0281006 0.394791 -0.0354218 255 0 0
-0.074634 -0.0787373 -0.0146729 128 0 128
-0.0290966 -0.0275121 -0.0461083 128 0 128
0.0572735 -0.336785 -0.0234994 128 128 0
0.21836 0.117289 -0.0108699 255 255 0
-0.0594025 -0.40829 -0.0285691 128 0 128
-0.0794826 0.186501 -0.00728138 0 255 0
-0.126189 0.192256 -0.0238353 0 255 0
-0.0910725 -0.011193 0.0132384 128 0 128
-0.113984 0.267916 -0.0406038 0 255 0
-0.0483168 0.278367 -0.00601114 0 255 0
0.0200414 -0.0563806 0.0437884 128 128 0
0.0511711 0.156234 0.00517223 0 255 0
0.157064 0.21599 0.0310642 255 255 0
-0.078051 -0.327109 0.0244593 128 0 128
0.0845091 -0.0229121 0.0320872 128 128 0
0.216581 0.314054 0.0745454 0 255 255
-0.0843805 -0.095429 -0.0403036 128 0 128
0.00172711 0.34601 0.00107558 0 255 0
0.0182399 -0.142941 0.00623645 128 128 0
0.0532185 0.0639705 0.00395442 128 128 0
-0.0583458 -0.252507 -0.0292221 128 0 128
-0.0523274 -0.529081 0.0225793 255 128 0
-0.0517862 -0.476417 -0.0324315 255 128 0
-0.0324392 -0.262955 0.0403732 128 0 128
-0.00888507 0.00410039 -0.0148665 128 0 128
-0.0925258 0.267213 -0.0192768 0 255 0
-0.249007 0.0995129 -0.0319902 0 0 255
0.0927663 0.258085 0.0235974 0 255 0
0.0441293 -0.457463 -0.0380159 128 128 0
0.0845872 -0.175717 0.0144778 128 128 0
-0.097208 -0.0729912 0.0117369 128 0 128
-0.077538 0.183961 -0.0400257 0 255 0
-0.0238778 -0.0780832 -0.00859481 128 0 128
0.0515306 -0.486095 -0.0381855 0 128 255
0.0446461 0.0671369 0.0329568 128 128 0
-0.0601425 -0.0317262 0.00346389 128 0 128
-0.0441324 0.129023 -0.0396623 0 255 0
0.063067 0.149093 -0.0357594 0 255 0
0.0795549 -0.15027 -0.0116052 128 128 0
-0.0209779 0.467841 0.0410702 255 0 0
-0.035514 -0.521025 -0.000477494 255 128 0
-0.055733 0.0579687 -0.021616 128 0 128
