ply
format ascii 1.0
comment VCGLIB generated
element vertex 620
property double x
property double y
property double z
property uchar red
property uchar green
property uchar blue
property uchar alpha
element face 0
property list uchar int vertex_indices
end_header
-0.1271995309035279 0.1139616173200134 -0.1010104539419311 255 255 255 255 
0.236188076137254 0.5065878570117456 0.1367513545871518 255 255 255 255 
0.2987980927307878 0.4709212172271077 0.1466786750609531 255 255 255 255 
0.2833128795235096 0.518790083338287 0.07758787033863881 255 255 255 255 
-0.2022552661510973 0.1052806693333151 -0.01099904950525426 255 255 255 255 
-0.01995801908031021 0.34755001590349 -0.09849079169408037 255 255 255 255 
-0.5280268459293328 0.1383334091059768 0.08622540637255584 255 255 255 255 
-0.2027343092394661 0.3537768153869778 -0.04017086140768512 255 255 255 255 
0.003745954343226497 -0.5572192596918643 0.008755155730246419 255 255 255 255 
-0.1518576603254595 -0.4354133226429033 0.06744567656320281 255 255 255 255 
-0.1091689165408284 0.7658054672305834 -0.04962949854408031 255 255 255 255 
-0.6114199857880128 0.1112380599650303 0.08282219121255333 255 255 255 255 
-0.2032502362062425 0.1643519851034894 -0.02052025404132161 255 255 255 255 
0.05873612573776509 0.2120766956819214 0.06052105660521662 255 255 255 255 
-0.1558687079426908 0.3513441438316585 -0.09745809698379441 255 255 255 255 
0.2988317750042301 0.4104720116339798 0.1123695736727533 255 255 255 255 
-0.06953593236594091 0.1587554494223709 0.1377384976068415 255 255 255 255 
0.1016033665620032 0.5389120293555483 0.03806461901584666 255 255 255 255 
-0.01956337750712073 0.7667334614685627 0.06127827388058669 255 255 255 255 
0.470694641992668 0.1369324065403892 0.0907409721443232 255 255 255 255 
0.2383391992883485 0.4907090680944149 0.08220279035146627 255 255 255 255 
0.2012272297432432 0.6134031554009683 0.1207022632993818 255 255 255 255 
-0.04547039455784933 0.3044903901317144 -0.09908413576426794 255 255 255 255 
-0.1220613000546034 -0.4001645313619987 0.09183209735265184 255 255 255 255 
0.005855877338341186 -0.5174585602803135 0.08907276578780567 255 255 255 255 
-0.1414337526558739 -0.499902595272895 0.08055632094584997 255 255 255 255 
0.05883136930289191 -0.64320271526869 -0.02223570859751725 255 255 255 255 
0.05748592199204865 -0.6906334950787905 -0.01150802872943048 255 255 255 255 
-0.1226467895168048 -0.2733775713193984 0.08445167128444064 255 255 255 255 
-0.2016644225765576 0.5390666698970074 -0.05202221483889732 255 255 255 255 
0.06721443530912025 0.2624212399090057 -0.03151819662535056 255 255 255 255 
-0.07301306099584984 0.268371522288278 -0.09815369618691713 255 255 255 255 
-0.5668613588935223 0.1587690660189152 0.00419830287146237 255 255 255 255 
0.3079024276873005 0.2541933749992561 0.03476566394656855 255 255 255 255 
-0.01937296412028436 0.7328771762745041 -0.04682505450319464 255 255 255 255 
-0.09872202152378193 0.3058695052155791 -0.09921582487872888 255 255 255 255 
-0.0370119060080124 0.338898852261005 0.1099493427154497 255 255 255 255 
0.06057780627659252 0.02665197803558708 0.08415302298061289 255 255 255 255 
-0.4926517799378682 0.2500833389283037 -0.05017749818961428 255 255 255 255 
-0.09777029012617408 -0.5462236614700825 0.007897867839249256 255 255 255 255 
0.439146427353136 0.08335190412812625 0.0474852452236979 255 255 255 255 
-0.174612414891051 0.3789838938314002 0.03585914815890687 255 255 255 255 
-0.09743853851136318 -0.4681129506666948 0.007720075140397934 255 255 255 255 
0.3744728029937682 0.07109809439012967 0.04273470271405479 255 255 255 255 
0.2864687516616117 0.533714104774053 0.1367016743845545 255 255 255 255 
0.1759852861911388 0.4959795311268985 0.05239123374574169 255 255 255 255 
0.05428829926574211 -0.6318313010805765 0.05799789977895286 255 255 255 255 
-0.09992896585733957 -0.2131869680627859 0.05720146011090614 255 255 255 255 
-0.06633735261975254 0.1720576974262889 -0.09749105533017655 255 255 255 255 
-0.3185467308405916 0.3328061710468421 -0.07361115138849826 255 255 255 255 
-0.1532684295281138 -0.5793309866805599 0.08418971243825746 255 255 255 255 
-0.09840197385062299 0.7668878205242209 0.08700103356717412 255 255 255 255 
-0.02617221219171077 -0.4476570959930845 -0.03763085452455674 255 255 255 255 
-0.09897762328457504 0.5886016066367172 -0.04602413410407663 255 255 255 255 
-0.09703609866106655 -0.3888013596497211 0.005178386080531569 255 255 255 255 
-0.1819847295620524 0.2346746450030348 -0.05696213880750783 255 255 255 255 
0.005478754891821638 -0.4446159895067366 0.08703737283571909 255 255 255 255 
0.1495445336934241 0.02838335029463311 0.01608145776735911 255 255 255 255 
-0.09669620061884537 -0.08167594279485529 0.06204866714590469 255 255 255 255 
0.06082104385833068 -0.6737083876321557 0.04037528991770722 255 255 255 255 
0.0410131806375042 -0.005074461682267457 -0.07183905524786424 255 255 255 255 
0.1577162282033754 0.4871348830870258 0.09804344970278805 255 255 255 255 
0.03298709172554943 -0.6228577272948486 -0.09820488647520986 255 255 255 255 
-0.4308350600422733 0.233460000934184 0.0008948130568485514 255 255 255 255 
0.01452673075708346 -0.3426035089359817 0.05875642851607801 255 255 255 255 
-0.02734721710775037 0.1339542639511664 -0.09921485411251302 255 255 255 255 
0.2194532408447786 0.4115434237458854 0.002533427331993065 255 255 255 255 
0.3447550342290561 0.234569742937712 -0.04770165850458 255 255 255 255 
-0.2758710664900009 0.3597106957054135 -0.05112510877796764 255 255 255 255 
0.3739090019702016 0.2419398673249472 0.03609217183612871 255 255 255 255 
-0.4318427552228117 0.3369694717210356 -0.05098478025499954 255 255 255 255 
0.1833481595402194 0.4352375315314938 0.0901222796591134 255 255 255 255 
-0.2515996470521747 0.5135734044048708 -0.02793457526329292 255 255 255 255 
-0.09035147750042646 0.4122969920788369 0.08988689225185305 255 255 255 255 
0.006297311636156776 -0.6809633562517337 0.11409029211884 255 255 255 255 
0.05777337557308473 -0.5409708445809948 0.05930442403818968 255 255 255 255 
-0.1200784816543366 -0.3413023635038502 0.08413731678970644 255 255 255 255 
0.05873234766710853 0.3180612780215036 0.03870252751958838 255 255 255 255 
-0.02499763964842473 -0.4035821237739924 -0.02160545403530087 255 255 255 255 
-0.2006748290763119 -0.001335035084292791 -0.02643259702911838 255 255 255 255 
0.06057119206545851 -0.4020311364775305 -0.0726444291285032 255 255 255 255 
0.05731080713765863 0.2645278655958387 0.04846851565110756 255 255 255 255 
0.2281555431777668 0.3245256755699689 0.05823440317689528 255 255 255 255 
-0.1488319579834611 -0.5253329550926671 -0.10050163340669 255 255 255 255 
0.06061321755767661 0.4910371325540978 -0.07365076434342531 255 255 255 255 
0.05346476326252077 -0.4883561831909896 0.05340480370047993 255 255 255 255 
-0.1436366058009651 -0.3165893735012121 0.05493061149570577 255 255 255 255 
-0.1757129131493668 0.4057837407227822 -0.09928071389730043 255 255 255 255 
0.03344657577636558 0.1175725498702958 -0.08224282189458958 255 255 255 255 
-0.07301915149637768 0.619367502692112 0.1111841845749801 255 255 255 255 
0.06117601880952596 -0.5798987055039692 0.0311527440844015 255 255 255 255 
0.1394864590178552 0.4342748187207967 0.08558465164579597 255 255 255 255 
-0.2012925391237171 0.2100419802509844 -0.02062656675669045 255 255 255 255 
-0.04399245882277737 0.5980975416579707 -0.04928559892403064 255 255 255 255 
0.2826705190025932 0.4153102228046213 0.07126337487451434 255 255 255 255 
0.005508867457787322 -0.3907760568494547 0.03312125668505309 255 255 255 255 
0.1957648834709198 0.5392323576760166 0.0560789750709195 255 255 255 255 
-0.08733629843622684 -0.514370445727815 -0.03999260080696528 255 255 255 255 
0.2389181799688194 0.4357965899703552 0.03701738947687536 255 255 255 255 
0.2869078429116605 0.4659468590565317 0.07818941225968487 255 255 255 255 
0.1630901820144747 0.4683796541670014 0.0002840471133928556 255 255 255 255 
0.3134060966127161 0.3105261315382497 -0.04616060563512708 255 255 255 255 
-0.04701000388063235 -0.09857134575564112 0.03969648398214661 255 255 255 255 
-0.1330737454651966 0.5645294152071249 -0.07420722516747494 255 255 255 255 
0.08297619936825767 -0.0985129919759037 0.0003347571604187674 255 255 255 255 
-0.163373351920742 -0.5374237229105954 0.07069288594621811 255 255 255 255 
0.0949838892584474 0.3725679618840015 0.007407228133245479 255 255 255 255 
-0.07111983741625985 -0.1773421478228671 -0.03828959127301598 255 255 255 255 
0.09187190163917888 0.5164248174796708 -0.04947272522892151 255 255 255 255 
-0.563869533934656 0.1664390348001188 0.08914569450551021 255 255 255 255 
0.01896507675134562 0.5443938258570199 0.03298644516731061 255 255 255 255 
-0.04417450187518101 0.4446839439594134 -0.1069906918730855 255 255 255 255 
-0.142699026931167 -0.3758716069891979 0.06186571355820834 255 255 255 255 
-0.1366861692377007 -0.6559904780127801 0.1116763022875587 255 255 255 255 
0.2441502489706521 0.04633877003807047 0.02611994948440677 255 255 255 255 
0.08596694810946162 0.204988786910052 0.003545006776903423 255 255 255 255 
-0.1200380736463548 -0.3077600368762058 0.009622279584966567 255 255 255 255 
0.09335541600586186 0.257186076957676 0.004364126344094047 255 255 255 255 
-0.0972270890275985 0.5448975299165102 -0.09860417402283336 255 255 255 255 
-0.01993322799377733 0.1684581110107335 0.1208088382606265 255 255 255 255 
-0.3620743958999344 0.3897590536200528 -0.01610227109511529 255 255 255 255 
-0.1051458478648655 0.1789536755871483 0.1103515850423798 255 255 255 255 
-0.07287646752741313 0.7375197965123043 0.1102542706086395 255 255 255 255 
-0.2030870753730747 0.2754097918248475 -0.03286211119476257 255 255 255 255 
-0.2018999251616743 0.3984736954842756 -0.04285529722643956 255 255 255 255 
-0.5355129266855048 0.1760354266394044 -0.02089637130976704 255 255 255 255 
-0.2002451953462314 -0.06857212422947681 -0.01209540124260229 255 255 255 255 
-0.01064915351755742 0.08184417030233015 -0.04398414238460992 255 255 255 255 
0.3225511301504141 0.3131792839984671 0.009037071250627235 255 255 255 255 
-0.09482124808148977 -0.08049061941352408 -0.07895199412219309 255 255 255 255 
-0.3828279826370359 0.3075568603607819 0.006683464233902262 255 255 255 255 
-0.2282441510855766 0.4987439514511047 0.00639729658620416 255 255 255 255 
-0.1351096262832423 0.6193533487888809 0.01187077363481057 255 255 255 255 
0.2827705860077045 0.445510559625887 0.03726405175357159 255 255 255 255 
0.3084315624509456 0.234569742937712 -0.007071544244430506 255 255 255 255 
0.1079702743508894 0.4591714099479791 0.06555589764888263 255 255 255 255 
-0.005977908156279316 -0.3033333822267432 0.07419219731327661 255 255 255 255 
-0.06984989900531058 0.6894454715352027 0.1149218647571875 255 255 255 255 
0.4184721392390569 0.2217295554129619 -0.002945114567107087 255 255 255 255 
0.03145004397252152 0.1382966032500007 0.0927974644210845 255 255 255 255 
0.2877415290813068 0.5668927689645692 0.1910044613198952 255 255 255 255 
0.1220873250528193 0.4293753568686745 -0.0236283839735245 255 255 255 255 
0.001899587942102556 -0.1632316751864868 -0.05180893371779453 255 255 255 255 
0.05848108233954049 -0.4344923870080926 0.05460894672927072 255 255 255 255 
-0.2574091008901632 0.4528233987112537 0.009111255113716611 255 255 255 255 
-0.007257359225821636 0.4693848051950589 0.08494586861287717 255 255 255 255 
-0.1777702609474332 -0.5438573343305626 -0.07346909082830209 255 255 255 255 
0.03312936001536423 -0.3626061038866627 -0.07788945551728081 255 255 255 255 
-0.1370004919684159 0.6597498240843005 -0.02624602937124418 255 255 255 255 
0.006399147762991976 0.2285029906312903 -0.07440214146932712 255 255 255 255 
-0.02230342923505065 0.4014480669804113 -0.09832659294367928 255 255 255 255 
-0.148841932905395 -0.668589965700784 -0.09989441040743915 255 255 255 255 
-0.09577113655340302 -0.4834789811518089 -0.07358572441045519 255 255 255 255 
-0.02322834936067173 -0.1245230293021876 0.06854044863412447 255 255 255 255 
0.07146423162079932 0.306027159707465 -0.02019802696536813 255 255 255 255 
-0.07542118322886542 0.09667830183517173 0.1132777503935626 255 255 255 255 
0.01259993032439214 0.5400097236077219 -0.07801824568737023 255 255 255 255 
-0.3401476763927901 0.3936760716541617 -0.07644711649954902 255 255 255 255 
0.3330627775366597 0.06338468507743764 0.02812487951213221 255 255 255 255 
0.2362585386025106 0.3218598713376979 -0.02250937377498408 255 255 255 255 
0.1700241175740111 0.3591571250939684 0.005398965745885788 255 255 255 255 
-0.1009935703556914 -0.4281156190399107 0.06505857057173264 255 255 255 255 
-0.01162926917025157 0.3851750731479231 -0.03846517694828032 255 255 255 255 
0.08465577097575896 0.06872841599050264 0.004693903578520316 255 255 255 255 
-0.02269594123427049 -0.5301120169428599 -0.01914101228237467 255 255 255 255 
0.06055931661728835 -0.1092862302541208 0.08502569748804051 255 255 255 255 
-0.588322812379959 0.1384737017272748 0.05733987158973164 255 255 255 255 
-0.09999712112384623 0.05039542368715511 0.08769657449477736 255 255 255 255 
-0.2588313807247204 0.4750552370552981 -0.07290975446414996 255 255 255 255 
0.002796288526733545 -0.6665073520672176 0.03897589744324319 255 255 255 255 
-0.05406750255169246 0.06816209676834881 0.08297143795424289 255 255 255 255 
-0.07306445433007458 0.302990129876755 0.1171802179294733 255 255 255 255 
0.01911948011711639 -0.06333058896151912 -0.05561850178120913 255 255 255 255 
0.03399021907075775 -0.1821167225933095 0.08432549915925439 255 255 255 255 
0.03763331275874799 0.419209583365217 0.08965094401659851 255 255 255 255 
-0.1272159655915655 0.1032504136315557 0.08707400990596892 255 255 255 255 
0.05994192201376855 -0.2709735072233549 -0.04645192840308088 255 255 255 255 
0.2396770206260436 0.3978165561124465 0.0617668308271216 255 255 255 255 
-0.02615520653630891 -0.4963664651992777 -0.04757896343793849 255 255 255 255 
-0.1531185222716336 0.1541052623390811 -0.0776535060929795 255 255 255 255 
-0.1034138394492 -0.650503937630968 0.08078867918726744 255 255 255 255 
0.01780810200949322 0.5706840591959105 -0.04680898789543163 255 255 255 255 
0.1758507590132154 0.5383421632374177 0.1116888523735202 255 255 255 255 
0.2348009737405964 0.3759365109998504 -0.02336458293659679 255 255 255 255 
-0.224737219112602 0.4351252937983535 -0.07452900184567099 255 255 255 255 
-0.147958406246859 -0.45593475917629 -0.008859657047222594 255 255 255 255 
-0.01154895771081568 -0.4929607699301066 0.05376869005642693 255 255 255 255 
-0.0078342514175629 0.652011669275093 0.001070846144477486 255 255 255 255 
0.1080493131377747 0.4315325926765155 0.02437615158336113 255 255 255 255 
0.1343162764320983 0.5123603221710498 0.06059640484305558 255 255 255 255 
-0.1253798668273357 0.06981794657196747 -0.1063181587328074 255 255 255 255 
-0.09115210614799263 -0.277259437676724 -0.0778994022077219 255 255 255 255 
-0.1752199805294484 -0.5243501204071177 -0.01359757478874919 255 255 255 255 
0.05909001611348553 0.1548302568617669 0.06223428833603345 255 255 255 255 
-0.1546862093258901 -0.09680616474194437 -0.07858339468496651 255 255 255 255 
-0.02561707047709859 -0.2964163532354481 0.01299757428376329 255 255 255 255 
0.06195703692748709 -0.3395377892246916 0.04258998030852717 255 255 255 255 
-0.001852224809657751 -0.5040734493912242 0.009427008385357635 255 255 255 255 
-0.04575292069854066 0.6844879613711353 -0.05510663264825023 255 255 255 255 
-0.1651943311258191 -0.6239022427284794 0.08329408224266259 255 255 255 255 
-0.04199185380043856 0.2698328588235416 0.1161767619052084 255 255 255 255 
-0.1380128572704214 -0.2855900777682019 -0.100333553526982 255 255 255 255 
-0.4246652037585448 0.2779322316197346 -0.07789598637870414 255 255 255 255 
-0.1488141491976577 -0.09211324231219933 0.06400144106367683 255 255 255 255 
-0.0878426420799174 -0.4519136630576517 -0.04283569112801797 255 255 255 255 
-0.1494053691560169 0.2053588854025453 -0.07162394678219283 255 255 255 255 
-0.1744471122355283 0.2336575959286327 0.0427814214478688 255 255 255 255 
0.001146857443371695 -0.7183399582724237 -0.02182923211292961 255 255 255 255 
-0.04913393642514207 0.4367445669779944 0.1003562890440258 255 255 255 255 
-0.1056274445201666 0.2235997302027552 -0.04394577344749102 255 255 255 255 
-0.01158907255309861 -0.6005008326120803 0.06172942066044412 255 255 255 255 
0.2573637441867162 0.2850788067610798 0.02973193436178736 255 255 255 255 
0.05833507657361765 -0.7199619247527995 0.03961332914923307 255 255 255 255 
-0.07099710642426932 -0.0259481309907099 -0.07434287025226324 255 255 255 255 
-0.104590460956889 -0.5280583196854088 0.08979068149877982 255 255 255 255 
-0.1627992985455169 -0.4742664444160231 0.0507743169754196 255 255 255 255 
0.1509302358943284 0.5563261638166676 0.04828685016920229 255 255 255 255 
-0.2766338082728045 0.3757480819671025 -0.01025825044782529 255 255 255 255 
-0.1290835574848785 -0.1718012934941546 -0.08662386183212503 255 255 255 255 
0.2843837480478136 0.5921829398896753 0.1547635658346923 255 255 255 255 
-0.0911418309095469 -0.224101008056029 0.006294312878944647 255 255 255 255 
7.366296527179853e-05 0.4714049516006719 -0.0977999888531069 255 255 255 255 
-0.05138476525494166 0.2116331697459746 0.1041726769536436 255 255 255 255 
0.3060627095177996 0.3753014412249698 0.07877270744751486 255 255 255 255 
0.001054262690995611 0.05940468206312086 0.09771616759085792 255 255 255 255 
-0.3991217971361968 0.2586360280471252 -0.01861234668772058 255 255 255 255 
-0.5316438064928142 0.1874435214213962 0.06730100403335615 255 255 255 255 
0.03873319110239715 0.2156146681261999 -0.04689402410980231 255 255 255 255 
-0.2240780838616464 0.4297162379803672 -0.01906066504881178 255 255 255 255 
0.004458087988840275 -0.2121794572222135 -0.05265179353268683 255 255 255 255 
0.09289011680022913 0.4630444920610526 -0.04591595540822327 255 255 255 255 
-0.08999465514809513 0.2609758077674273 0.1101209922317698 255 255 255 255 
-0.0247834368463274 0.07512137702258616 -0.1046447379296236 255 255 255 255 
-0.5815221702124279 0.1333307737523664 0.112424440215398 255 255 255 255 
-0.1495959159290744 0.2989368472420513 0.06663276421423542 255 255 255 255 
-0.1199748794473754 -0.6671466212870676 0.03472540187658437 255 255 255 255 
-0.3731141903039049 0.282844096321851 -0.04616805543354777 255 255 255 255 
-0.003023716491926533 -0.00125101505788882 -0.07960482802111123 255 255 255 255 
-0.04195015860030533 0.7735156782359889 -0.04979347504440082 255 255 255 255 
-0.06507376430420321 0.1117993508581881 -0.1123014145836613 255 255 255 255 
0.009889185149658296 -0.4051836869455932 -0.07937125570538456 255 255 255 255 
0.2835187520140711 0.3199255190657838 0.04257400662299357 255 255 255 255 
-0.1344107842331384 0.2596591216802295 0.08890153858780978 255 255 255 255 
0.06417212780881933 -0.3163941071502672 -0.05174664225016629 255 255 255 255 
-0.065665274462522 -0.06495995482830083 -0.04733111766410093 255 255 255 255 
0.3583785426485471 0.2064921245698563 -0.009190776891513184 255 255 255 255 
-0.1499620765400695 0.2619005275564993 -0.07321663161520672 255 255 255 255 
-0.02250067230269129 -0.02867401272309832 -0.04756267736867301 255 255 255 255 
-0.1239112895977227 0.7352518918596302 0.05840710509556446 255 255 255 255 
-0.09147477378604764 0.004479478838789082 -0.04664657405558745 255 255 255 255 
0.4685602300156553 0.1472098773801819 0.007199140705328433 255 255 255 255 
0.02654512491673372 0.2361885332525068 0.08471185346318755 255 255 255 255 
0.4179118945206541 0.1282653869514446 0.01269815732777931 255 255 255 255 
0.008368845956970376 -0.4787435344976174 -0.0793236226203865 255 255 255 255 
-0.005417658724914138 -0.2423876104507677 0.0723287878409441 255 255 255 255 
-0.09551804306072789 -0.1370674440955665 -0.07781926412123977 255 255 255 255 
-0.1055776376576844 -0.5979217805979503 0.07782470105315385 255 255 255 255 
-0.1679928810884315 0.5126498267182384 0.007291821264682424 255 255 255 255 
0.08399643939730755 0.01525218957816748 -0.02166814849690402 255 255 255 255 
-0.1311033978220087 0.7369347726755033 -0.02324782806910981 255 255 255 255 
-0.1742963865157186 0.04058153078258495 0.05283207550596258 255 255 255 255 
0.1354938826637897 0.4946172053695227 -0.0266628879693856 255 255 255 255 
0.04163719428078106 -0.02796715013947802 0.05714123404955639 255 255 255 255 
-0.02605219333120892 0.3641118678105459 0.07384618103738949 255 255 255 255 
-0.163164010254794 -0.4373231563803589 -0.1073348904274879 255 255 255 255 
-0.02259452918454414 -0.3233357981250213 -0.04260727919092058 255 255 255 255 
-0.06431530607427836 0.3450660823096213 -0.1047957458053472 255 255 255 255 
0.02645916170849038 -0.03274069059736929 0.1015390303207422 255 255 255 255 
-0.09062929148452084 0.2250678559254265 -0.08830696018677381 255 255 255 255 
-0.3089829514437809 0.3454942558807543 -0.01431865414943354 255 255 255 255 
0.06054986724830824 -0.495618220543936 -0.0629091079485391 255 255 255 255 
0.03510381088869798 -0.2965514520786176 0.05587910062498019 255 255 255 255 
-0.2660337192671128 0.3967362655839428 -0.07795221836497136 255 255 255 255 
0.03147921437802 0.4097029699759704 -0.08398885487110484 255 255 255 255 
-0.1747415223475027 -0.2911290734884038 -0.07309258706667475 255 255 255 255 
-0.179452215505417 0.06240331868168369 -0.06258738228668637 255 255 255 255 
-0.1749849028786382 0.2805364417772269 0.03505918484024559 255 255 255 255 
-0.06750225003056712 0.482871086710966 -0.1007794347055881 255 255 255 255 
0.02812622691443853 -0.519440294562216 -0.08556430147962943 255 255 255 255 
-0.1245186029985194 -0.1013179716568905 -0.03999366500650885 255 255 255 255 
0.1834834110456133 0.5832391112078728 0.06266990462609079 255 255 255 255 
0.08507174435949 -0.03998322927054063 0.05303214213632192 255 255 255 255 
-0.06580768941589901 0.1960299473326078 0.06523685814306537 255 255 255 255 
-0.1876842322038934 -0.1935382936650135 -0.05918629590189958 255 255 255 255 
-0.05343308128403167 0.1081842472452205 0.06479871937305032 255 255 255 255 
0.00613411548110748 -0.6210748078696885 0.09937000166812576 255 255 255 255 
-0.1416204959029824 -0.1395476597074778 -0.05980742160309872 255 255 255 255 
-0.1488732334026131 0.1450680238039339 0.08443415464093403 255 255 255 255 
-0.01597875797161694 0.6752085669833702 0.03915907457078832 255 255 255 255 
-0.1000008759567395 -0.002004117637530747 -0.1018760172498827 255 255 255 255 
-0.1284144297532011 -0.04592269340006707 0.05782755796264995 255 255 255 255 
-0.04778178135910593 -0.05877171196221588 0.06280422097289008 255 255 255 255 
-0.1220561549585522 -0.4687142476635195 -0.1138563002394042 255 255 255 255 
-0.1112769380483435 0.5126603553273633 0.04005259399066267 255 255 255 255 
0.01312497485052607 0.2970354226306008 -0.07470260181293027 255 255 255 255 
-0.1486604627068322 0.002221743723581731 -0.093035799893119 255 255 255 255 
0.03570373141915638 0.186578563787663 0.09079489856383344 255 255 255 255 
-0.1525356444603217 -0.6127418706555219 -0.01743851589430228 255 255 255 255 
-0.1489007563954448 0.4155598642170217 0.06025690395251398 255 255 255 255 
0.01144144391169262 0.3078878440862201 0.08767678958890046 255 255 255 255 
0.007535029535371469 -0.06797299912727613 0.04846274696656511 255 255 255 255 
-0.1495672855183992 0.5255174200459891 -0.1072312483175098 255 255 255 255 
-0.01930081540980246 0.235142992535994 0.08590123518726045 255 255 255 255 
0.1151968007443937 0.5382701704273789 -0.01069577878084757 255 255 255 255 
0.01900877466571378 -0.664703439934886 -0.1016229078118355 255 255 255 255 
-0.06901638153259469 -0.1257569629523392 -0.04075746546077965 255 255 255 255 
-0.0704253591470051 0.09477326177512993 -0.07194426838644241 255 255 255 255 
-0.1769902574975977 0.186353387040027 0.04170181539629959 255 255 255 255 
-0.5352977197072091 0.2131916107132617 0.02642964540928012 255 255 255 255 
0.01503972783428579 -0.2287941564900153 0.03129305729900302 255 255 255 255 
-0.08104731886265418 0.3797083924786094 0.05726977998310272 255 255 255 255 
0.3095942696772731 0.3631367690283477 0.00391582599089331 255 255 255 255 
-0.1227842449135837 -0.1754076351542955 0.07816219878186469 255 255 255 255 
-0.009969879396648812 0.08367252397136077 0.004434073405109325 255 255 255 255 
-0.1349800003806284 -0.01069804221374094 -0.05152045130062054 255 255 255 255 
-0.0506303119942882 0.08340071861721836 0.02361357210784425 255 255 255 255 
0.00469185184920459 0.4028290105803689 0.001677634588059959 255 255 255 255 
-0.1921962067385308 0.4372978572123061 0.03498631868562072 255 255 255 255 
-0.1065897003077281 -0.07144484501938374 -0.01315907070002216 255 255 255 255 
-0.02605831886809376 -0.2097057480802187 0.03880013696251616 255 255 255 255 
-0.1023730982307624 0.324147350223149 0.05416610788925251 255 255 255 255 
-0.1163803786213071 -0.4180473282654869 -0.1118466965160405 255 255 255 255 
-0.05138476525494166 0.1619317598165292 0.04171020830025548 255 255 255 255 
0.2956029074220334 0.4030996480982723 0.02736614583585746 255 255 255 255 
-0.1612882896070555 -0.4804714883625666 -0.09863634532950989 255 255 255 255 
0.1441839425866662 0.5197198137817343 0.0181328061441192 255 255 255 255 
-0.1443523331044891 -0.2294955906055436 -0.08871048134825807 255 255 255 255 
0.03910083099976865 -0.6669947242441715 0.0794350186490254 255 255 255 255 
-0.148855612353019 -0.00544635690436132 0.0684116393588643 255 255 255 255 
-0.1155595175951613 0.3675356004935131 -0.1090198981063333 255 255 255 255 
-0.04865628303023836 0.3075062206863309 -0.04108154374175551 255 255 255 255 
0.08723428722362221 -0.05389796203676173 0.005324132820973748 255 255 255 255 
-0.004267251650495502 0.5053586664662134 0.06045538004585087 255 255 255 255 
0.03866192904019073 -0.3837845693580255 0.06119091137396254 255 255 255 255 
-0.1272034386981191 -0.4962123312653911 -0.008820109380192462 255 255 255 255 
-0.1422224270778043 -0.3661689274611186 -0.1131958876656632 255 255 255 255 
-0.367062721992634 0.3248979282278102 -0.06895362474270685 255 255 255 255 
-0.02805762751932731 0.1081667970363585 0.1115316532847023 255 255 255 255 
-0.01884073125073025 0.4362236788189243 -0.01861089398510844 255 255 255 255 
-0.291942479060602 0.4276043520992738 -0.0004253342332219016 255 255 255 255 
-0.06027552403180431 0.2815367011028808 0.00170744200111983 255 255 255 255 
-0.1882485576812079 0.3130755823489036 -0.007473264452730077 255 255 255 255 
-0.0264815140402937 -0.02911371122132372 0.0915999057834035 255 255 255 255 
0.2660215485450119 0.3681667007106822 0.03375333431303908 255 255 255 255 
0.01008219065435715 -0.2625942266912714 -0.0007888056127658902 255 255 255 255 
-0.154115177490481 -0.6627044639022108 0.00691389790404192 255 255 255 255 
0.3599714790273933 0.2856173931085003 -0.002565558411043779 255 255 255 255 
-0.1766090981137833 -0.3217624831452569 -0.003789028470157044 255 255 255 255 
-0.1597528958105094 -0.3234647841146512 -0.09840308584162363 255 255 255 255 
-0.04632316152445487 0.7183840876615551 0.03062892401799215 255 255 255 255 
0.01721657915166309 -0.07851759949678846 0.09212792874167697 255 255 255 255 
-0.03791985755379409 0.5162790372866672 -0.09891126914499948 255 255 255 255 
-0.1111381115522797 0.8011481390640189 0.02699326643454807 255 255 255 255 
0.05621708417870898 0.4117553701097578 0.04641659984743816 255 255 255 255 
-0.07288988195225043 0.4223451209563297 -0.07127637001742143 255 255 255 255 
-0.01269240304485168 0.3356360361634818 -0.03980526363022251 255 255 255 255 
-0.04270765853435696 0.03423482821001712 -0.09759702994000433 255 255 255 255 
0.05497010625365979 -0.04483612198862297 -0.03196921818749746 255 255 255 255 
0.06140423792455203 -0.5189532964674921 0.01608751515180988 255 255 255 255 
0.04779335042518539 -0.2219778511621686 -0.04769628706262261 255 255 255 255 
-0.01963625503252617 0.07429621283052155 0.05356249094196534 255 255 255 255 
-0.1109286276031725 -0.3306188759984378 -0.1031310783349229 255 255 255 255 
-0.054990496295181 0.143662892061334 -0.06609271851943686 255 255 255 255 
0.04159133748007315 -0.4966808164292942 -0.01811146168982675 255 255 255 255 
0.03067852879634411 -0.5853786648226335 -0.02191900828647907 255 255 255 255 
0.09042617583473078 0.01037851752282492 0.02249751560187805 255 255 255 255 
-0.1525301436657579 -0.714783110475683 -0.08395602226401486 255 255 255 255 
0.008654691625535465 0.04894359192476466 -0.01600482207577446 255 255 255 255 
-0.05021502960364541 0.7397781433927402 -0.01197394598312214 255 255 255 255 
0.404517018053591 0.2102899592316647 0.03985408410006415 255 255 255 255 
-0.3001882841999958 0.4018409874206359 -0.04005443558149886 255 255 255 255 
0.004779153781798306 0.3600251909686537 0.03425120303099738 255 255 255 255 
-0.02635780874400741 0.2582972581650128 -0.07547542912764883 255 255 255 255 
-0.09835172342011042 0.433259857180025 0.003458639000727098 255 255 255 255 
-0.1723201689986364 -0.03912203241396604 0.04802778852227713 255 255 255 255 
-0.07322241228895016 0.5784069811196699 0.04636834595184989 255 255 255 255 
-0.09966457773957685 0.4826111254242501 0.005976392773140687 255 255 255 255 
-0.1317518602940099 0.4828064929492633 -0.1187955872028427 255 255 255 255 
-0.07080656737488195 -0.127368578677539 0.002957342133468027 255 255 255 255 
-0.1369946035280028 -0.09588788206590938 0.02168747702897808 255 255 255 255 
-0.07369648518082178 0.1398262702394111 0.09681987637152684 255 255 255 255 
-0.03333675610143748 0.6304940043086187 0.0865219839931113 255 255 255 255 
-0.1353766155966478 -0.05022810733254023 -0.09031152118058092 255 255 255 255 
-0.09475406898345415 -0.1495072189934031 0.03614314900443007 255 255 255 255 
-0.4784606830968079 0.2050925490527502 0.009126155570015984 255 255 255 255 
-0.00724236780575325 -0.182185001859075 0.06954097521877897 255 255 255 255 
-0.1875037100009033 -0.1423378161132208 -0.05901353660313932 255 255 255 255 
-0.2006044126244127 0.4605186299728077 -0.04836175987097844 255 255 255 255 
-0.1581247477741995 -0.228861927635191 0.02512222890437695 255 255 255 255 
0.01721657915166309 -0.1210264349229667 0.05111030324333672 255 255 255 255 
0.06057780627659252 0.05820293231100914 -0.05681468166421636 255 255 255 255 
-0.09161078109521069 0.04268510428238759 -0.1135395525743092 255 255 255 255 
-0.04790720932442895 0.04679436491909442 -0.04280096265717506 255 255 255 255 
0.05549897236226098 0.5231555824265676 0.04939011610348797 255 255 255 255 
-0.02965792437144825 0.3174781246988141 0.006665389537439535 255 255 255 255 
0.199098368947903 0.3875132297699799 0.07418468922170643 255 255 255 255 
-0.1762776056676028 0.1117714062189298 0.0504104378519777 255 255 255 255 
0.2100783462952369 0.3189367709307042 0.01618988647343222 255 255 255 255 
-0.1786870532150258 0.3349278637491952 0.02965634572476502 255 255 255 255 
-0.1787264761504948 -0.4007279115523484 -0.0890384062709747 255 255 255 255 
-0.1758607187525523 0.1059218263272153 -0.05228834959785039 255 255 255 255 
-0.1091776585271967 0.7123912467057349 0.09532103723176211 255 255 255 255 
-0.1849924428321093 -0.1879643806307279 -0.01254081160737315 255 255 255 255 
-0.1450530036722789 -0.6147700823645867 -0.09486134749745004 255 255 255 255 
-0.1102171948989498 0.310727926559071 0.09492030766600637 255 255 255 255 
-0.1442238379124171 0.1906457421761935 0.08653413850044715 255 255 255 255 
-0.0671667991583634 0.504818483005666 0.0317068765981956 255 255 255 255 
-0.07153779544664299 0.1927272874828116 0.01238743399790431 255 255 255 255 
-0.09474698816398695 -0.2079150011684986 -0.07564018131473965 255 255 255 255 
-0.1349901198320959 -0.05376992748212965 -0.04332147769324707 255 255 255 255 
-0.1244559706610106 0.6750906124113951 0.0542671955734216 255 255 255 255 
0.00866845409967465 -0.3706897306612391 -0.03960964744086251 255 255 255 255 
0.005023988210125035 -0.06242435332358683 0.001484694035340527 255 255 255 255 
-0.00738154855004005 -0.6260826486184685 -0.01573165305226963 255 255 255 255 
-0.05475848368032634 0.4801292722422164 0.07358588990308476 255 255 255 255 
-0.07053294251840778 0.4443807963117786 0.05279757983118009 255 255 255 255 
-0.08473400168962968 0.3889958845216416 0.01239573655746665 255 255 255 255 
-0.1379748952071514 0.6173255709696339 -0.0384676624792285 255 255 255 255 
-0.08109557505038162 -0.05844529525466906 0.02733117716675742 255 255 255 255 
0.04932935749687731 -0.6867283928462413 -0.07695162613566497 255 255 255 255 
-0.03813143654724236 0.1364430547708292 -0.01992165748622877 255 255 255 255 
0.4896391171338762 0.09476643306636609 0.1013056875909703 255 255 255 255 
0.04537393281639653 -0.1222500332108211 -0.05031963107189089 255 255 255 255 
-0.184982668621626 -0.09716095285276777 0.04014757803972506 255 255 255 255 
0.03092163638431581 -0.1646150519942538 0.03428470742808179 255 255 255 255 
0.03649548159415607 0.4293920546315 -0.0396451496686453 255 255 255 255 
-0.09489101390533616 0.4058905391556158 -0.1127949469628088 255 255 255 255 
-0.1051341895154525 -0.003319232533820387 0.0674643230257837 255 255 255 255 
-0.06334224186621205 0.02439372015482004 0.08589241731014305 255 255 255 255 
-0.09886624786374106 0.4765235412019771 0.06581773302188756 255 255 255 255 
-0.0774224221423854 0.7251925859743927 0.06553700057974679 255 255 255 255 
-0.1165239025632568 -0.2616145885105751 0.01289525180297446 255 255 255 255 
0.4779323525982871 0.1112579137785762 0.03103899270034133 255 255 255 255 
-0.1453289177999916 -0.7156687041225711 -0.01607900016441936 255 255 255 255 
-0.1282687195941212 -0.04246267251890767 0.01124778048023466 255 255 255 255 
0.005033599967631899 -0.7203867135526997 -0.06746977037081069 255 255 255 255 
-0.1184924238349282 0.2067294790903174 0.02757045413729727 255 255 255 255 
-0.1344090338225038 -0.393094609637697 -0.07422744082610259 255 255 255 255 
-0.03620440017757047 -0.1666143420975026 0.03791858491880738 255 255 255 255 
0.03533768899491718 0.4618826396819133 0.0757515675464269 255 255 255 255 
0.02666390354837453 0.0908359822746333 -0.01897171491478553 255 255 255 255 
-0.1720230717362204 -0.2680129467418789 -0.01032339838211504 255 255 255 255 
-0.07712166503442858 0.7360320895735605 -0.06990043639696898 255 255 255 255 
0.06778926835707119 -0.5514427071705285 -0.01613451535788563 255 255 255 255 
-0.08512189011396719 0.7087011105581411 -0.0120878199380007 255 255 255 255 
-0.09877556779469959 0.3220829997150992 -0.03086557351080153 255 255 255 255 
-0.1235918407017857 0.004453451496951571 -0.006137307616363094 255 255 255 255 
0.06128685964106381 0.5469138969715359 -0.042807479433204 255 255 255 255 
-0.09114026133963177 0.1261291390789384 -0.04507720189079861 255 255 255 255 
-0.1619054909985986 -0.6709630902391885 -0.05631514188831409 255 255 255 255 
-0.4933881643353347 0.2642861385175348 -0.006502633022830231 255 255 255 255 
-0.2904159653754176 0.4336331936612993 -0.07010367593060243 255 255 255 255 
-0.04032136673703964 0.8038462324990532 0.04790645383625699 255 255 255 255 
0.06732860641991545 -0.150467125373045 0.06729941779422648 255 255 255 255 
-0.1235918407017858 0.3726603599136379 -0.04389121266713937 255 255 255 255 
0.00279365499070576 0.4396336418092824 -0.0678399772749359 255 255 255 255 
-0.08795421818563864 0.04264428508647625 -0.02305637647286404 255 255 255 255 
0.1115986426377908 0.4691354176998466 0.0009738257029157787 255 255 255 255 
-0.04447416481990369 0.558668924251863 0.006246723899688701 255 255 255 255 
-0.595367487378818 0.110557728612719 0.0225088570369674 255 255 255 255 
0.02891957870484988 -0.01459551740703169 0.01071126897119543 255 255 255 255 
-0.09835172342011042 0.2400796759707506 0.07163983392120601 255 255 255 255 
-0.006055167529320222 -0.7095205009403652 0.03714809356897966 255 255 255 255 
-0.05217716132832741 0.5540857599001433 -0.07999578403119141 255 255 255 255 
-0.1277680527185804 -0.1957545077786602 0.004415478003323519 255 255 255 255 
-0.009091178007249276 0.1602554928919312 0.05619944061032126 255 255 255 255 
-0.0796786791684862 0.192360483042622 -0.0598791033165475 255 255 255 255 
0.02812622691443853 0.492600573879399 -0.03679419790622003 255 255 255 255 
-0.02269009606405722 -0.2778583955674363 -0.03617627558329915 255 255 255 255 
-0.1378362879144039 0.4619970329324239 0.04992319811936269 255 255 255 255 
-0.1851202864316868 0.2511205595329674 -0.000988224485665611 255 255 255 255 
-0.06220195837565967 0.5004720197438919 -0.05998205794316726 255 255 255 255 
-0.0418696091076388 0.2281708510566693 0.04260968319611494 255 255 255 255 
-0.003304193040982378 0.003433137794164987 -0.01393560909406175 255 255 255 255 
-0.1465064084478411 0.4621006170410197 0.0007460331908484691 255 255 255 255 
-0.09080122195061625 0.1677032110214544 -0.02525194029450467 255 255 255 255 
-0.1099982016665478 -0.7083843375837882 -0.09173129097514948 255 255 255 255 
0.2746876452625805 0.3341899261998165 -0.04122232236307207 255 255 255 255 
0.01000511707118443 -0.192270647536355 0.005601984553132915 255 255 255 255 
-0.03326365541168758 0.02915274198424759 0.03018336576255385 255 255 255 255 
0.02844969180060397 -0.57101736590693 -0.086818851350991 255 255 255 255 
-0.03478216992157371 0.1785154543423579 -0.03950523737493085 255 255 255 255 
-0.09041558002859988 0.6653511760391131 0.08486520139327745 255 255 255 255 
-0.01889289803400455 0.1934558015775504 -0.08618113755028639 255 255 255 255 
-0.01523500021049091 0.2730188575104526 0.05222464994488402 255 255 255 255 
-0.1958815264458172 0.4760144357277334 -0.1043939871078548 255 255 255 255 
-0.1163803786213071 0.08017276210291736 -0.04273960580447383 255 255 255 255 
-0.1779206864111554 0.3111750628759367 -0.05534484546828337 255 255 255 255 
-0.464102454579513 0.2250464739980816 -0.02699889783494221 255 255 255 255 
0.02445144685643551 0.4368604997593444 0.02547763996556677 255 255 255 255 
0.1544796008464384 0.3826349107998064 0.05788055533016046 255 255 255 255 
-0.5245134396596105 0.2273084901871158 -0.01645776548182026 255 255 255 255 
-0.1340257541814633 -0.4855253061322684 -0.05121907466122928 255 255 255 255 
0.008369815604982405 0.4007107347148937 0.05029183464114968 255 255 255 255 
0.1761461088483661 0.4070586760488549 0.006380236815751873 255 255 255 255 
-0.09669940686623152 -0.4172086309152124 -0.06895998110182198 255 255 255 255 
-0.1320219920157736 -0.1597532034921863 -0.02047282660159618 255 255 255 255 
0.006781976954870319 -0.3388190781683145 0.01276163389621325 255 255 255 255 
-0.1633473367864759 -0.09474810451193413 -0.01405152174662372 255 255 255 255 
0.04456093047882183 -0.4522943850405839 -0.08176831903317913 255 255 255 255 
0.00639208515468785 -0.7179927978299641 0.08062323753562603 255 255 255 255 
-0.09041224640390129 0.07132466763843255 0.04865032606407595 255 255 255 255 
-0.054990496295181 0.7841537917862734 0.08711395188028295 255 255 255 255 
-0.1395148334114241 0.2815680818066723 -0.01777408589858825 255 255 255 255 
-0.1115128569088017 -0.715554450230897 0.08361345633197811 255 255 255 255 
0.03295669734537789 -0.4217242863794931 0.01791898800135899 255 255 255 255 
0.02442804123214178 -0.3303681808159303 -0.02707950031526363 255 255 255 255 
-0.07175979893627349 0.6339714120390453 -0.03363766140208328 255 255 255 255 
-0.02163063434623986 0.7900519049065345 -0.004971461057652846 255 255 255 255 
-0.1018098533922624 -0.6102558768381695 -0.1066667671950967 255 255 255 255 
-0.1726781594480837 0.01347530137385827 -0.05837712762871591 255 255 255 255 
-0.04777903421470233 0.3634538788427769 -0.004565592821869184 255 255 255 255 
-0.1173252814193539 -0.6394039884310682 0.0005180039644222534 255 255 255 255 
-0.1390225285691175 0.4052579486679662 0.005370302912487674 255 255 255 255 
-0.01992178379615302 0.4829365863705779 -0.0574720118427841 255 255 255 255 
-0.01234359472303556 0.1695741295713466 0.004655588398103955 255 255 255 255 
0.03344626592339161 0.1480881366277528 0.02349746630734622 255 255 255 255 
0.06310733492526258 0.4431595711615471 -0.07490599744420916 255 255 255 255 
0.3260937412874986 0.2697112189292285 -0.0272160459871279 255 255 255 255 
-0.08767943108635551 0.5357339464226714 -0.04796721642836489 255 255 255 255 
-0.1375692960912286 -0.1442223077341128 0.02139034579140731 255 255 255 255 
0.02442804123214178 0.3681913661123198 -0.01966989822455265 255 255 255 255 
0.01626845163647198 -0.4608566995886361 -0.04029585297023475 255 255 255 255 
-0.1271975717420251 0.03442146208869388 -0.0421731689088581 255 255 255 255 
-0.175356072271309 -0.1616441611881453 0.03888163114565438 255 255 255 255 
-0.4630852863366277 0.2843720874648624 -0.05166276664443747 255 255 255 255 
-0.07565846350135487 -0.2389562477851256 -0.04847224561618942 255 255 255 255 
-0.03394374866039879 -0.2137318989613639 -0.02440464812602153 255 255 255 255 
-0.01586991305762983 0.5937017998155971 0.008667176240360501 255 255 255 255 
-0.02255155704195171 0.5282866728333051 -0.05330861280630581 255 255 255 255 
-0.1162044163138316 0.5028784861470802 -0.07068078578653145 255 255 255 255 
-0.09509872881253882 0.08961471843441185 0.007807255196955281 255 255 255 255 
0.02408258508935917 -0.1544351600785572 -0.01277311874855942 255 255 255 255 
-0.04862840158340191 0.6438719922647338 0.04591374417985876 255 255 255 255 
0.007183695193580409 0.4713147212721692 -0.0006136907627456896 255 255 255 255 
-0.01543566747934148 0.4041996446535617 0.102531505354005 255 255 255 255 
0.05274616073057317 -0.07214104271028614 0.0596149577076433 255 255 255 255 
0.04187212403295909 0.5621921110270829 -0.005033760210677474 255 255 255 255 
-0.1610675179032509 0.008796851202572193 0.0230755296933927 255 255 255 255 
0.2101578019915416 0.4666356629007501 0.05368906583228069 255 255 255 255 
-0.1106958547375434 0.269385227474857 0.02269467273534202 255 255 255 255 
-0.07290896267586962 -0.01487198424061719 0.03939862262137148 255 255 255 255 
-0.1917158029167465 -0.1316720093596618 0.008795926800792983 255 255 255 255 
-0.02199691575629036 -0.02340345798326365 0.02916428460568593 255 255 255 255 
-0.1475494150560108 0.4587373754390462 -0.05955169424678745 255 255 255 255 
-0.2936896056315411 0.4617390176175893 -0.03394161558914946 255 255 255 255 
-0.1855933073500343 -0.3588941880154614 -0.07624228813562525 255 255 255 255 
0.2192256104962023 0.5743945865908283 0.1285261863254296 255 255 255 255 
-0.1221294790962552 0.43492921547946 -0.08771837263485116 255 255 255 255 
-0.3707885242828795 0.3457891859163036 -0.01512777735800875 255 255 255 255 
-0.1665107289966604 0.1454565475581181 -0.03466878646868354 255 255 255 255 
-0.003293249524919719 0.7494573997743325 -0.007692178843152236 255 255 255 255 
-0.1451733163071134 -0.3539275370576527 0.02086582049682164 255 255 255 255 
0.03040035430106502 0.1408152537759191 -0.01949176484820108 255 255 255 255 
-0.1164531994090516 -0.1226297994182409 0.06466431428969795 255 255 255 255 
-0.1070817282503633 -0.5622535426984605 -0.03250498406192995 255 255 255 255 
-0.1076651376537392 -0.4668169068860087 0.08473733468836625 255 255 255 255 
0.02105396132486663 -0.5431422926975403 -0.0493100611313987 255 255 255 255 
-0.1810915529816911 -0.4708223316146863 -0.04022513243672781 255 255 255 255 
-0.1623381044154774 -0.6703351936948417 0.07751090468215414 255 255 255 255 
-0.009295300345749654 0.2689355125892176 -0.0004110157707115439 255 255 255 255 
-0.1515456988995252 0.3333166390790683 -0.02776970577484334 255 255 255 255 
-0.09649807323474133 0.4543367150844361 -0.03943330740845921 255 255 255 255 
-0.1163803786213071 0.3344151574068373 -0.07026986526145908 255 255 255 255 
0.07428629123678171 0.1660903138056597 -0.02386605475462091 255 255 255 255 
0.02635887957502941 0.1776169689382692 -0.06454441021898424 255 255 255 255 
-0.1055631855005891 0.1298190619943246 0.0239560775613983 255 255 255 255 
-0.1171710607405035 -0.3508768106778996 -0.0131528060875651 255 255 255 255 
0.02226828751648056 0.2906002678702678 0.03734250094970146 255 255 255 255 
-0.1399867942298854 0.06265543417208605 0.07231892930235945 255 255 255 255 
-0.02560004998542288 0.1264190856656845 0.02156525948668628 255 255 255 255 
-0.02453436174784888 0.5154389210341419 0.01599139409258467 255 255 255 255 
-0.1786878014311064 -0.2480760939934074 -0.06630723298760165 255 255 255 255 
-0.1400659580965408 -0.2465810931548779 -0.03676432141071933 255 255 255 255 
0.02530804812002347 0.07980948389511748 0.0489079889008362 255 255 255 255 
-0.09185862243194506 0.6620978085816904 -0.004876323275218725 255 255 255 255 
0.09218444711530721 0.1425366780181529 0.01272988974961698 255 255 255 255 
-0.08771837357310897 0.2339043158660795 0.005124436206832922 255 255 255 255 
-0.1444775360462864 -0.3441159763253238 -0.05006133634770113 255 255 255 255 
0.04894259778862932 0.0372786926614023 0.002235324433531447 255 255 255 255 
-0.1238230151604944 0.5726998704143038 0.02795810676065722 255 255 255 255 
-0.08720560044800509 -0.3649732501731865 -0.04328052996218965 255 255 255 255 
-0.1095605031997809 -0.7018048203396947 -0.04677526394380818 255 255 255 255 
0.06755462329055327 0.5109500030476501 4.100277544636516e-06 255 255 255 255 
-0.07993014639894112 0.6856833902449634 0.03136674169162045 255 255 255 255 
-0.008274808910788179 -0.6714216758080906 -0.02171989364866944 255 255 255 255 
0.07379679660315457 -0.4436789402348514 -0.01616524849405763 255 255 255 255 
-0.1091689165408284 0.7526161766230276 0.0151770140023197 255 255 255 255 
-0.1452262269432218 0.4160395659003173 -0.04595548986563394 255 255 255 255 
-0.03179479455589462 0.4682982317267793 0.031246511145961 255 255 255 255 
0.06461511384142946 -0.1329709267038648 0.02623756399535607 255 255 255 255 
0.05540585610787441 -0.223501653678799 0.009173458187317841 255 255 255 255 
0.06300955054633678 0.109045578768894 -0.0392934845952459 255 255 255 255 
-0.07114743236554823 0.7839760051875806 -0.01381521892983342 255 255 255 255 
-0.1328392193644274 0.1643142163080999 0.02179044413031029 255 255 255 255 
0.07221811269895193 -0.3724713044904746 -0.04180200226929009 255 255 255 255 
-0.1737836339041204 -0.4211901261739772 -0.04657402828265235 255 255 255 255 
-0.09098806130231242 0.6208608769086525 0.05788394727203186 255 255 255 255 
-0.008987990342097161 -0.6341314375509719 -0.08013053916243101 255 255 255 255 
-0.605152503362328 0.09333957865513867 0.1228840493880056 255 255 255 255 
0.05318549760879553 -0.2677574307618447 0.008531327664735133 255 255 255 255 
-0.06355150623509932 0.7611003581609537 0.03544408129715311 255 255 255 255 
-0.1728125615588083 -0.7048526684696178 0.04170965207147887 255 255 255 255 
-0.1637489704175659 -0.5923030921724334 -0.06150847242408821 255 255 255 255 
0.2147140941415225 0.4751023714798363 0.1154592292704216 255 255 255 255 
-0.09122784641918752 0.6114247267462622 0.01199187553876236 255 255 255 255 
0.2183423209600341 0.3636176623328003 0.03811255694809898 255 255 255 255 
-0.1763584973286363 0.424032578610574 -0.01557543900264194 255 255 255 255 
-0.1430552790147263 0.2341087137022021 -0.006449975308879696 255 255 255 255 
-0.05263590916204483 -0.05283551003501968 -0.005566831877796056 255 255 255 255 
-0.4285791873024808 0.3082889445885716 -0.01747486962712558 255 255 255 255 
-0.0192144758925004 -0.1186688465972083 -0.03373209452581866 255 255 255 255 
-0.05387769618003237 0.2174879794533186 -0.02613033842841025 255 255 255 255 
-0.06118073590267026 0.4082266819921951 -0.03136180430252813 255 255 255 255 
-0.08478971852069302 0.2745342347009638 -0.03678124376958038 255 255 255 255 
-0.001624058210624384 0.1090722845038459 0.07438659316461224 255 255 255 255 
0.04976061315587452 -0.7136926710906066 0.08402768078862222 255 255 255 255 
-0.004417807089772907 0.14646737844623 -0.06053268896618191 255 255 255 255 
0.05336080045766708 0.06992094587354858 0.08340395868182821 255 255 255 255 
0.04839540285610853 -0.3144259215992409 0.00781121703614137 255 255 255 255 
