ply
format ascii 1.0
comment VCGLIB generated
element vertex 842
property double x
property double y
property double z
element face 0
property list uchar int vertex_indices
property list uchar float texcoord
property uchar red
property uchar green
property uchar blue
property uchar alpha
end_header
-0.7522183207257529 10.23735544014936 3.858149479292499 
-0.7810748936759326 9.223828318246223 3.814604416432357 
-0.773674203830457 9.608345834192763 3.793344325665291 
-0.6265861074473429 9.76381866016532 3.777302068907882 
-0.8196336403000946 9.51469848778305 3.895646197754488 
-0.8209275350501904 10.00742353207073 3.841476035282125 
-0.6031728523628814 10.02277268693197 3.902882685211079 
-1.134935241286448 9.641571132439822 3.94394296248263 
-0.5304432507002557 9.408390883316411 3.872727855267586 
-0.5403813580419905 10.01302215882577 3.901101795161849 
-0.9898237730466848 9.787629765696384 3.842614595121245 
-1.17256716892588 9.619955596515069 3.957869295402431 
-0.5434240704736916 9.092327112788038 3.859482895759392 
-0.1575877025571364 9.591529663288217 3.983181557985654 
-0.6714548667213665 10.13918093527445 3.93552594691372 
-0.6043085245584412 9.112462381026386 3.907081142112565 
-0.4916549144803045 9.96555869434199 3.919602563055685 
-0.7221875028206706 8.923042819812849 3.803584997892702 
-0.544820170096025 8.992049946365587 3.849473767273079 
-0.7482687264031332 9.790846944372825 3.780548276028024 
-0.7243664594036717 9.367415613821819 3.798331214688802 
-0.726018951777048 10.19187937979963 3.817356997223119 
-0.5352548169071383 9.343564519884538 3.878424661524443 
-0.7676973812645546 8.794435305897597 3.970126170251246 
-0.7387747081878411 8.748694809070088 3.875568632079635 
-0.7265796143913725 9.691532208242462 3.793685297045201 
-0.2076082663482888 9.689096421784583 3.937182985641591 
-0.8213642662633331 9.496892443959229 3.900846596230702 
-0.8030109921220091 9.080137842058333 3.878912430425914 
-0.5881594473342354 8.749980976819035 3.950528126300908 
-0.7380533747860831 9.017972943107656 3.805707588898399 
-0.545655470875037 9.121904798926545 3.830360913813461 
-0.6953347713901181 10.28163664598684 3.939867804279483 
-0.6572094822691693 9.970772090324422 3.771855505012453 
-0.7393594147742876 8.752309750132133 3.884400235924583 
-0.7738844246105963 9.620477584363595 3.965859236949459 
-0.802371570121459 9.878589855720833 3.933748408998102 
-1.01100835663926 9.815717557235381 3.849770715632065 
-0.4706158937163321 9.980371056698061 3.87962537195564 
-0.330270355377199 9.724951237918763 3.884341751402716 
-0.4062736899921673 9.895120836803327 3.891562944067385 
-0.5595390419093742 9.672837924092141 3.928295235725041 
-0.3019853742418643 9.791907471941334 3.8858361020378 
-0.5603973058936098 9.311542395356563 3.925607532390834 
-0.5300574840509561 9.452014531287693 3.889551414773939 
-0.7187263467777472 8.926598464040611 3.821587423808738 
-0.5689142921306887 9.610142015935626 3.945990934761628 
-0.7615512713009671 8.785143398386012 4.014812531571381 
-0.178737796990919 9.646298219674602 3.94857429799557 
-0.7276050350185672 9.096291459365723 3.81268323626705 
-0.6013263251930734 8.758168892689458 4.045099743288474 
-0.7673225040267901 9.474741921849965 3.778242428073151 
-0.8853025406307461 9.892536482481082 3.819354674767247 
-1.22068629109617 9.574758559383241 4.003809602705829 
-0.6252726646754747 8.784224350093414 3.976306023165124 
-0.5436700075477364 9.317417565682089 3.900388050126157 
-0.6263787371156667 8.850861135618864 3.90192648379969 
-0.7533756724799525 8.749231606692261 3.829852993429121 
-0.767375391771008 8.882025109711652 3.814699372152465 
-0.461558250616884 9.891436405470138 3.92436726948648 
-0.6315423475599837 8.813745280964927 3.865337431592582 
-0.8011754779415985 9.119894668749039 3.810914357376825 
-0.578245761675793 9.162437991933842 3.929543382483289 
-0.9922915904764136 9.783467366221757 3.910841779132176 
-0.592802583410265 9.528006068346066 3.952295134666863 
-0.7595905711412623 9.055112744281915 3.900908350922876 
-0.8127989312213909 9.083603123239994 3.860833242481756 
-0.5017795937999072 9.896362023926155 3.879362066663322 
-0.6709521925771985 9.328589468228198 3.889525516941936 
-0.7438576958270098 10.25627777068654 3.876399671935959 
-0.5489576529955407 9.854359323687106 3.905840406261743 
-0.7956147184676963 9.250751937154661 3.911839362211299 
-0.6336745639477595 9.197986052299138 3.824773544412376 
-0.778777180294743 8.820743459608854 3.913298460365795 
-0.6301946448649434 8.802150075244159 3.895188655143898 
-0.7370335714885112 8.898131290220407 3.798555060240159 
-0.6347466616217405 10.13722159244361 3.911402646722891 
-0.634058321663307 9.000231156651893 3.838100405250922 
-0.6224323072966265 9.927862289454319 3.971389156021398 
-0.800137087384964 9.203312923077943 3.821535677040872 
-0.6742610678808151 10.11544559251144 3.959012548011748 
-0.7935423030492712 9.016131340864527 3.807914771959296 
-0.8126993731422774 9.196639504895535 3.863909466532838 
-0.5895139379470957 8.865443371108325 3.916997160964847 
-0.6678922392295673 10.11283812990874 3.829727971193453 
-0.7214247499316113 9.010084335827479 3.824552727292887 
-0.5990199656146225 9.293349042254885 3.807270033411073 
-0.6063137930821334 8.751716303241913 3.812316758236977 
-0.8182195787476998 9.476972166609016 3.910057390216386 
-0.7167555504502343 8.951839181578592 3.825311851242706 
-0.2373395495313867 9.655771587884903 3.995886824072878 
-0.8161303864537794 9.466363248856162 3.845054789613259 
-0.530269094984348 9.418000755996504 3.867468138649293 
-1.140847169207057 9.703060083511705 3.946808946670441 
-0.6864765459322336 9.368054424843105 3.908001407163071 
-0.4617678007711496 9.900310714303808 3.925982711583319 
-0.7335316952283863 10.01359331561352 3.907381530775423 
-0.8281742383521504 9.44004077799827 3.883328517621901 
-0.5904591401402958 8.814711803680382 3.812878140882853 
-0.7770254073524274 9.242308121507477 3.926788842253957 
-0.5739775271338452 8.77376438896699 4.022396716025828 
-0.6551024415862512 10.03248109096022 3.796600585861706 
-0.5766498244402776 9.295077387466762 3.937624583286139 
-0.7421603350966066 8.749203693944366 3.955797502564548 
-0.5712353961923572 9.418511243763657 3.944207839880157 
-0.3744065269720125 9.842585175717019 3.914410695485193 
-0.6184453175342033 9.777874746504656 3.777586321624633 
-0.6557700589393057 9.38251687985764 3.934658521099194 
-0.7606909696406989 9.825419117954423 3.964110751991279 
-0.9182589538307994 9.8582002153807 3.818953020389684 
-0.5370623727583457 9.909167564070369 3.831641930415361 
-0.6603270311700584 9.758381855399159 3.993960955376774 
-0.5885498620743024 9.814270580331119 3.788651625144745 
-0.6331606729448246 9.991600261147406 3.936961759334551 
-0.467616114913381 9.920667642211608 3.8292600611301 
-0.7077314042403939 8.846298962430291 3.864002156817291 
-0.5414845674659859 9.154102405768027 3.87306863686767 
-0.7886914535324901 9.238927894882686 3.817593247015703 
-0.6326786033906566 9.046738681451359 3.815724793964732 
-0.5371220584519037 9.883168258118934 3.867323860093843 
-0.575232881319643 9.95646806199959 3.784356144735879 
-0.6351068547281807 8.968893801820144 3.824555628755382 
-0.6496441700290294 10.00725426309503 3.926768588060503 
-0.7122252226573907 9.017512411903216 3.839069978718479 
-0.6170457775394704 8.767722408561204 3.811826994816772 
-0.699080121736195 9.889759312958834 3.979230305477344 
-0.9356311514154423 9.78940039200849 3.86897494687472 
-0.7049674391833223 9.006568010431678 3.856004941508554 
-0.9318519312153071 9.921848738212407 3.881596734524789 
-0.6559007573791593 10.18585093679338 3.944821695887116 
-0.7432868220208018 8.951334795177816 3.804829400911407 
-0.810549921075435 9.693814842991904 3.900958298386207 
-0.5581536566700434 9.524522491447433 3.936189952037485 
-0.6957923879380917 9.254422956470949 3.895894330909033 
-0.5416666011263245 9.555612600292768 3.856822601830399 
-0.6533954141972527 9.641765190864835 3.77920540176404 
-0.7823884103709906 9.441942617692108 3.94184730638865 
-0.6429694696284585 9.553271448392969 3.957294221435677 
-0.5415772270597048 9.019744733442312 3.837695821217412 
-0.9431813070203562 9.824899788274379 3.907727925269996 
-0.6873225194440882 9.324848078854197 3.895289119895353 
-0.7403789224374033 9.670137764511956 3.984352844490311 
-0.6768637401768262 9.432347464081005 3.908305949298572 
-0.8666680585678463 9.985243508977437 3.89636969093268 
-0.5449314425070235 9.836229524774939 3.855086640795294 
-0.3548141010050153 9.782345533469567 3.84491928256018 
-0.2303518957490865 9.654181167557134 3.960992007397326 
-0.7696622343480303 8.748981629112661 3.856124060760449 
-0.5737678451177257 9.649559240162279 3.952306688665818 
-0.5458889141431023 9.83160644474391 3.862292406817482 
-0.6527312065950043 9.906328323110506 3.98341383718279 
-0.5467484211100806 9.844260188364377 3.827366959247641 
-0.6256168024895663 9.881977799566545 3.985368971241783 
-0.9014540605035005 9.944758600003329 3.89444323105734 
-0.814224108372603 8.935866513523774 3.858012140236275 
-0.7183836014870638 9.535067063760533 3.756513779868191 
-0.5000019913473169 9.952135770263972 3.928894388023183 
-0.5963901490347702 9.629620313360066 3.798212111461769 
-0.5437125238748852 9.861642293567257 3.823132904038589 
-0.8149651679201066 9.611635758636819 3.858073687370393 
-0.6327545180679968 9.463101694503173 3.957334183502741 
-0.6763112319261535 9.826705584236281 3.759353934449187 
-0.6682288218118668 10.2761880937481 3.940032051208952 
-0.452227995964721 9.956408283696121 3.86112092203818 
-0.6558932268916896 10.20312229081089 3.807084704853412 
-0.7966692532960959 9.77713103303013 3.930566798977578 
-0.4755445689794284 9.985207809540075 3.862154024112995 
-0.7558129058313342 8.790934918375498 3.985790544469597 
-0.5946950610520757 9.515030593395107 3.953139070655335 
-0.7018573101669234 9.737644881503631 3.998339913139444 
-0.6261589559693018 10.22990276651463 3.847672570000394 
-0.5657331812129484 8.932408506473003 3.885885274290546 
-0.601159648054246 9.550045593949905 3.953137741295177 
-0.596166592517972 9.377675502909113 3.802715598189184 
-0.5547175671851878 9.791554619755901 3.910456324405144 
-0.5758817826544251 9.080334020993668 3.914513669556818 
-0.5737420467805504 9.277657664714113 3.831675830689905 
-0.6371487615950434 8.836117374478558 3.882591160790873 
-0.440824850887328 9.906455935638128 3.836593254341548 
-0.5996899736037061 8.748553333340356 3.839965906145722 
-0.784772966863419 9.451965971981284 3.941089760853333 
-0.6061647885544338 8.848331817325612 3.813427208004174 
-0.7272160901034277 9.1920856074748 3.917162868020323 
-0.5869912774097455 9.901944480351757 3.772993247340989 
-0.7041142367363714 9.183117772859232 3.898973841841098 
-1.088371707149503 9.72669595991669 3.876685555902016 
-0.8115097390746476 9.03130637329707 3.823769460965561 
-0.6045619290518406 9.230092102985132 3.932106254430157 
-0.7932952113281937 9.854245755017098 3.940760100082703 
-0.587298830567387 8.81706779574567 3.938208711187593 
-0.7289377804950443 9.125569077128461 3.81533338551987 
-0.7952530452208564 10.02217882661412 3.825206952520411 
-0.5546304187976583 9.940415801535616 3.79060936119467 
-0.6056526038787791 9.651206112540461 3.978638431844704 
-0.7249497871528774 9.957056808890801 3.76528980844395 
-0.7886820367375816 9.571409153352588 3.802688805903992 
-0.6384140570139329 10.04043484563114 3.905976290078792 
-0.8199762242123897 9.506837894905203 3.878558457236828 
-0.5767069725492942 8.836544405621037 3.920342927623609 
-0.5284703356405713 9.469637020143605 3.881686273321789 
-0.5602744678940982 9.99387124761108 3.800346893760349 
-0.6130938523629617 8.902390324994013 3.886173822548769 
-0.7494939954484616 8.799625202216992 3.969846254411544 
-0.3944038540688742 9.832029463784179 3.831032607712154 
-0.2650109862861211 9.710333774243828 3.884567343004693 
-0.7970400965845584 9.588088333802236 3.822003261407266 
-0.6346425489435612 8.759981692349303 3.981988061400503 
-0.7868233788503619 8.968422702100208 3.900535753366272 
-0.4285212401110835 9.921417360048006 3.876977678801842 
-0.8150145705030505 9.63972910738763 3.889689167086858 
-0.6232482839155526 8.973515954380671 3.89607575578554 
-0.8212588894747669 9.916695141674881 3.833899711920902 
-1.072225124558618 9.775058260332361 3.932047390993869 
-0.7175236553432232 9.313549384103462 3.810903941260984 
-0.5822608553585803 9.453616329715855 3.949748477542654 
-0.6117339939592672 9.515116829817904 3.769438622481202 
-0.5513460810783205 9.127424439527985 3.901023089568077 
-0.8144166644541597 9.686879733574401 3.871026545758498 
-0.3760590509261735 9.812732917489491 3.836003191249047 
-0.5401366540019026 9.884021911680938 3.8255100862144 
-0.656490382725893 9.612041490601078 3.775085633317784 
-0.6941874773862873 9.202396073041745 3.880909181572146 
-0.5692023691400308 8.762151676586093 4.028720244892733 
-0.7886389285617061 8.934255839889589 3.899937141802018 
-0.6768979626791639 9.413003745911105 3.91562963304185 
-0.7584490309926706 8.956976910444464 3.891924620081901 
-0.6317537665418995 10.21859635217926 3.926056557400518 
-0.8011434581634622 9.629933698045562 3.81780623330808 
-0.6885863292218414 9.53161848611701 3.762553334225188 
-0.5863364773409497 9.833447227697823 3.965625182442968 
-0.628032010283326 9.678918860603675 3.801558963898918 
-0.8157413286060932 9.068666546878083 3.844285638515932 
-0.8288183528705517 9.464326816899026 3.875479077940962 
-0.8121609521445556 10.00365082274188 3.90343564010819 
-0.8702340560250509 9.896834116897923 3.819363196695585 
-0.734923023410367 9.020450382988432 3.885731337706734 
-0.7771749189047463 8.95429794242418 3.907778323584354 
-0.7376253146349866 8.949859157544591 3.81142010870964 
-1.111239162776011 9.718990024829761 3.898077299514901 
-0.4314218226515116 9.927534510173146 3.856088297664921 
-0.8157523997234256 9.899747055950824 3.907304180964801 
-0.7167120795934906 9.694041610353707 3.98914093579325 
-0.8094377383203607 9.838421676013434 3.877141636219843 
-0.6292542484967647 8.762279547666255 3.939058259733265 
-0.7239704994469871 9.649230303903995 3.989081399386597 
-0.7659950575831589 8.786396895113741 4.007075702672268 
-0.5567839774260128 9.827882137530404 3.925934214296793 
-0.3640948380977886 9.754851239066655 3.894086362844418 
-0.9373283261927265 9.88761760618284 3.824569196662643 
-0.785514837499945 8.777664598534152 3.976755527523177 
-0.6449069283711228 9.426745517854281 3.819451274943872 
-0.7891110852973842 9.383352477959313 3.939698716524058 
-0.2147625502115123 9.709225889536945 3.938064620803337 
-0.3382066359244391 9.725792493557758 3.905527008359256 
-0.6068469742221921 9.934141820558464 3.765802437622307 
-0.5547711282802098 9.025967731691505 3.808695432388542 
-0.5583214943528706 9.452862657419534 3.813117948518713 
-0.7410720760705873 9.839056773057751 3.767959886866779 
-0.6468066320010377 9.67398330819001 3.796318802135896 
-0.6881534299450969 9.377484123956798 3.836305685755158 
-0.5913664467060024 9.694794626848269 3.818987456555289 
-0.8379689711750428 9.92046228387939 3.831853644371884 
-0.754307802274769 9.160233386477422 3.918075964916129 
-0.742767038337083 10.13964536209331 3.906250147857572 
-0.7722384755511849 9.704824867217528 3.953861379028479 
-0.7063141242831807 9.178844885306471 3.845414114306599 
-0.7689412852729856 9.773372841849868 3.802003902004761 
-0.5770120829970247 9.813985593271088 3.792920417613157 
-0.3245827064642827 9.790960054571286 3.935802901553619 
-0.6815548303918969 10.06417137347558 3.816155218602528 
-0.9090588522197798 9.933148040484708 3.84268978316859 
-0.7269797288524049 10.10213025749762 3.919084073849563 
-0.5821146842911563 8.792057815579733 3.960397490779876 
-0.3730645710322359 9.759364610187195 3.891859986321246 
-0.8213833887527724 10.00254741135371 3.823850153543285 
-0.7238988743820356 8.781117683673774 3.922480888369623 
-0.5781294130601469 9.750359543145096 3.845335008366175 
-0.7757269176414813 9.256037283763062 3.81612660037354 
-0.5872297379126227 9.318462237047257 3.808733890194049 
-0.6431363424587406 9.141352654628854 3.882542240363557 
-0.4043339390945004 9.897345197583086 3.866224996185097 
-0.7207913923742841 9.77542901131104 3.984565023253302 
-0.7139839338490551 10.06049761729221 3.911532674876043 
-0.5416480250961323 10.01239892408414 3.830807404361122 
-0.8100869798745387 9.976015119448133 3.933860185281083 
-0.7312360188422019 8.869059050091138 3.898396884855855 
-0.7774729107475624 9.506660106892983 3.94234213837107 
-0.7005181174293915 10.22849518875352 3.807638103855004 
-0.7962091415159047 9.032886967706192 3.807411647389173 
-0.6074958261235344 9.064184385304735 3.891169486027245 
-0.6294819208341946 8.882604030112256 3.865046310717597 
-0.5461852576907005 9.0976225845806 3.866864497484737 
-0.6460482878984783 9.125129953287487 3.862160148390594 
-0.6217376333329222 9.975587044217212 3.774633573873442 
-0.6202237844070184 9.701491151471192 3.982440998651327 
-0.3635946409099534 9.857017397434978 3.888272622936509 
-0.8294166282136558 9.98363888555545 3.810694058224795 
-0.7386614970714882 9.385484915422074 3.947408473481585 
-0.6487369638684252 9.753385732827823 3.771227279020429 
-0.7227625859046287 8.759866361207632 3.972778471331573 
-0.7215771814438608 9.038563319925068 3.888408846320663 
-1.199608954835381 9.614330452607231 3.967503046330251 
-0.7469732448653537 10.17507534812183 3.892058523237095 
-0.3515724780153545 9.739875499409852 3.880284561697791 
-0.59995972900677 10.05057525435659 3.848418098705702 
-0.5451176526594006 9.557098774706649 3.911357924921747 
-0.5710417989865219 8.80869903612955 3.891101535081114 
-0.6729289396381548 10.13058074690055 3.940235996073427 
-0.7219517143724026 9.594997934405962 3.771087578360789 
-0.683281147712095 9.357871698608097 3.868813076141869 
-0.7926927074556599 10.01643200152203 3.807614771873394 
-0.669026623100382 10.20283273669587 3.966835329089742 
-0.632593424382267 9.939059826353692 3.764768495072946 
-0.1613224483260263 9.586920694392497 4.016362923437532 
-0.8151614097700898 9.919668975318025 3.926493653577217 
-0.8011776392594134 9.996825469463721 3.792944697423656 
-0.6310148719101295 10.19962006570092 3.839715299532221 
-0.6833152947212766 9.703448344328041 3.781296395010421 
-0.7285285150782035 8.820104790797997 3.913100710532577 
-0.2170236474320535 9.646776959291699 3.999467724681157 
-0.7169981504888139 9.055871361165634 3.88978760059949 
-0.6316619614504632 8.803196127305045 3.861983909427209 
-0.6734305174267132 9.796765516268184 3.760512067363291 
-0.8214571522968876 9.452208684079803 3.854374480741848 
-0.7544117766580447 10.18242690474358 3.875433656209371 
-0.8027634721819404 9.458285958170825 3.925596821821497 
-1.153656376219735 9.6107473812125 4.031883950805311 
-0.6026398661115573 8.782518825737474 4.018244102816529 
-0.3342245161906522 9.7230829353453 3.912747292907606 
-0.736825703497156 9.237971510372404 3.926623126711158 
-0.5829294220594013 8.884494973363783 3.903720775021068 
-0.787241384513145 9.887798332836276 3.951111336429763 
-0.7609027964548941 8.804843525993498 3.959219630626529 
-0.752678372373875 9.891089046925638 3.969036755760411 
-0.4258808801889761 9.849967147036033 3.917855754509514 
-0.5503204893844035 9.639917201247512 3.850938817715125 
-0.7213927156068592 9.454508720684704 3.77643374106382 
-1.092094438912796 9.756865027459087 3.925351066506776 
-0.8133333036129374 9.653201164555801 3.852545378169623 
-0.6463373852098512 9.697485013581996 3.995633791019884 
-0.5454966293922111 9.259487845127321 3.891904388355922 
-0.5794736560580331 9.489539918288093 3.788675590634563 
-0.7216524253490593 9.808029576927151 3.768712206739146 
-0.6184968730558014 8.887026979339781 3.881757366287106 
-0.7539958106513309 10.20108686007422 3.889144392874691 
-0.2144468187607408 9.707338768838405 3.947829977475006 
-0.5898598782778222 8.984395522036095 3.89844406951653 
-0.818432211512816 9.887658052760884 3.88413310156678 
-0.5474465588305801 9.113767164455911 3.82548302815474 
-0.6104772890311083 9.87366297958744 3.981923775208028 
-0.6084881841353746 9.121644915040605 3.907659787327185 
-0.7822465370034707 8.777593136027068 3.867370569705021 
-0.5628097689630438 9.147983336536607 3.911640944592909 
-0.620750602787918 9.025107980138669 3.805152006304866 
-0.8234896323253401 9.433239150308085 3.861484001560501 
-0.5624855044086435 9.452280832674155 3.93914484434344 
-0.5655123308611186 9.473032399682246 3.940831448774655 
-0.5892760456467735 9.784411667703411 3.796837718228085 
-0.6084865492475535 8.905790172660936 3.89466116989687 
-0.7563741165964821 9.70976740302341 3.808672556255371 
-0.7497430737337538 9.645965133499036 3.978845126406933 
-1.214587688428135 9.586420920326489 3.992936612469381 
-0.7554390338915868 9.785638519108108 3.963639202310707 
-0.7435887355996817 10.17144536577624 3.920775642618587 
-0.786446845843713 9.268906271616283 3.925223727838151 
-0.6922357607846504 9.416599847469534 3.824194473940416 
-0.5831616325488438 9.089227465893728 3.91067305038774 
-0.6788961818666039 10.14955299830784 3.972879969788251 
-0.6745852694447461 9.401744495440969 3.867766702863661 
-0.6074057428096697 8.934000526057718 3.805477067572503 
-0.529621278772086 9.990932284929912 3.816772401048197 
-0.6753811914958303 9.582867071926854 3.764417266586482 
-0.7482111352650376 9.203923602373514 3.924373141171769 
-0.7878188825573689 8.874726975584858 3.834130576123113 
-0.6763381906802363 9.895673459134562 3.7605014385929 
-0.7792348387014421 9.508240481484759 3.782507349410716 
-0.6547301829683866 9.681927547832043 3.795100247988775 
-0.605264249883112 9.136910767619669 3.912963299200484 
-0.4194683824563203 9.813028751868853 3.854725599416131 
-0.6896089297676624 9.262397880955657 3.879058732327941 
-0.3432615327349745 9.772670046802652 3.848013524746043 
-0.7657307652425875 9.539755623978689 3.944187466423872 
-0.5876471783751001 9.726718284919013 3.830770517206682 
-0.7093021545568717 9.168945294986409 3.902084395744128 
-0.7366058753523945 8.91070448126837 3.873280881021643 
-0.7506753156377184 9.259963570638671 3.934423924267565 
-0.1591221140528993 9.5997987857429 4.000500230803201 
-1.222110684355192 9.561479181441968 4.005017333269368 
-0.7384833760970215 8.969823552496834 3.81497880880103 
-0.6187516671580791 9.192463827704938 3.919828668512763 
-0.8068846885906296 9.252855086919515 3.830537118183972 
-0.6681164235045326 9.323136166081071 3.864533188458482 
-0.5426193307552979 9.163385227640955 3.850466385000642 
-0.6264938329886395 9.792711709628225 3.770260420585409 
-0.5974724856697677 9.127415480105979 3.913419480539149 
-0.532502110868964 9.402661945905823 3.890666404460665 
-0.447463838525155 9.84551344265528 3.901643951713707 
-0.2299226865803498 9.690079484968656 3.97789202937078 
-0.6934229661771587 9.881255170316232 3.756898478461292 
-0.7240929890061751 9.051152208065393 3.892990277827357 
-0.7738231418491688 9.864549199391321 3.770471373562273 
-0.56229534970873 8.758675829458442 3.989593491908719 
-1.165088952280497 9.655084692468407 4.003380864475893 
-0.7300457551024486 10.10884041800737 3.868143568530221 
-0.6595946776463661 9.418963239086917 3.94502757162013 
-0.6318026366465603 8.759026807716966 3.849742022233868 
-0.6031828244911577 9.56725942960604 3.953625960026481 
-0.877717391358479 9.937021751795015 3.910504901158 
-0.5794074876762819 8.754445673234263 3.826718422768915 
-0.7575225257740233 8.951203457075907 3.7932835241652 
-0.4682467326815873 9.975001687663548 3.854084060524516 
-0.8336542951318718 9.908485240480056 3.891029893858334 
-0.8497689889588371 9.922543479777234 3.924165588770035 
-0.7027197315755713 10.27994434019533 3.864163439125701 
-0.6039326421858955 8.998193126956528 3.798402360820387 
-0.6863929914150269 9.672166344091069 4.007939679270514 
-0.9750472905697023 9.813784904180556 3.900540445873748 
-0.5695766448862581 9.017082405258563 3.800809762732174 
-0.7914560806555113 9.47756098607891 3.936269482867742 
-0.6284863683613651 8.910667895220579 3.819673029322868 
-0.7388628983556065 9.947418652730875 3.950926804989157 
-0.5341978077642271 9.50130758812834 3.864189623900425 
-0.5444384236621881 9.629056077856204 3.883512490660701 
-0.7937118338867311 9.615772172528526 3.945475860029288 
-0.7811249594029741 8.878325065350692 3.887389291514095 
-0.5582009140571657 9.465527065907857 3.936294110421122 
-0.2140950276883328 9.638843671998185 4.020773931018041 
-0.7844022259836653 8.786128491300191 3.894618361238015 
-0.6521131876560873 10.09573650373262 3.917982142770744 
-0.7169853891227655 9.025731722721977 3.827659980442145 
-0.7258003707244393 8.930479348507713 3.805046041793349 
-0.7474923849351767 9.558538387806106 3.949614177269158 
-0.5931694152396917 9.380162762209642 3.95330209246868 
-0.8122610617855823 9.839875209633664 3.885104627347281 
-0.7119056516209938 10.10465706519889 3.841528445774182 
-0.7906711273627145 9.765326960763753 3.83768138278236 
-0.4538035298618343 9.835658414657033 3.858105426621283 
-0.8023684225288936 9.182206522141538 3.889702433340679 
-0.6982504285670824 10.28415509015337 3.88353411425995 
-0.7102190198944649 8.960816665790608 3.844496891760192 
-0.7503637960532925 9.964312871831567 3.938797896562241 
-0.7989086102211782 9.171562415867333 3.89308793252859 
-0.8105168661718363 9.941309278796494 3.786199921627179 
-0.5418453877766854 9.171391357484108 3.87331495178581 
-1.129419403964585 9.647865579933981 3.942964838766458 
-0.8056970491744426 9.621946964667375 3.825666619720385 
-0.6618021670419421 9.256645526598582 3.858518261670568 
-0.809371447356074 9.215966455706162 3.881687479836222 
-0.8115110979838597 9.616339752011219 3.913113470281819 
-1.125474422167682 9.647842924684937 3.996047512903202 
-0.741198651882145 9.146771889024226 3.912797938113524 
-0.9047968225969489 9.822721457288369 3.862907837597824 
-0.5988959651901969 9.975424943497622 3.78058197556241 
-0.7488046342506749 8.880609006047273 3.913260803286911 
-0.7702195643768444 10.03272503084514 3.814400463151366 
-0.6773948702299212 9.446478999160192 3.9404050178969 
-0.8177687175138465 9.513436564026012 3.913955983016606 
-0.6225752929096826 8.844085615101761 3.90793486381786 
-0.8815747150468312 9.869817395129235 3.821526932436815 
-0.5576616019603878 9.540093171006646 3.933842037510037 
-0.3426224747341141 9.804029320686777 3.842263418387059 
-0.7649366586571527 9.564756653010505 3.77774490485614 
-0.5853744410025818 9.960652586017122 3.78150750248773 
-0.7672945448271291 9.297917686906485 3.940422151264405 
-0.3361650848330391 9.830556374272756 3.865494622557692 
-0.623608920872654 9.609251332686876 3.993210974863857 
-0.7796698072393914 9.134096239092592 3.803000738738776 
-0.6286059912512564 9.716557736833668 3.793112703547075 
-0.7013397599383688 10.15051414190662 3.969116294927127 
-0.9264346304914425 9.900633901751535 3.829076650463559 
-0.7758050704090742 9.352757923906273 3.807642610237834 
-0.7588136198711428 9.46959275966924 3.774216375283791 
-0.5565075291514769 9.399511862238583 3.826690549736315 
-0.67731984282846 9.411211513832379 3.866916122395073 
-0.808459670405539 8.994817819317516 3.87551943703064 
-0.6482619256046296 9.42654723259122 3.950084892353384 
-0.545753144893853 9.970110850507547 3.947042029416502 
-0.5626037525292438 8.766406346675886 3.965388791159118 
-0.6684980061397566 9.744122859509044 3.9974980587143 
-0.7162508401215812 10.10801287042688 3.848021027729502 
-0.7056950504045455 9.034921473034403 3.874763114322309 
-0.7883182000003581 9.565222281470701 3.929943004227041 
-0.1545799260707638 9.583977438709358 3.986458175702071 
-0.7742561241912915 9.534863019239765 3.941852338196654 
-0.7313436027954141 9.016225486775582 3.812906562384341 
-0.3378668750084813 9.791270388691144 3.931042294014523 
-0.7344146282133068 8.87142176541651 3.910477041245158 
-0.6452989729380778 9.603266564361531 3.774898774095291 
-0.5979789079197537 8.783649985052374 4.008225382318956 
-0.5596596246524779 8.896460492686796 3.868529120141593 
-0.6876499872682987 9.284690110528485 3.875822868280018 
-0.7014821340572278 9.931911916492822 3.761601451219965 
-0.7069028562453157 10.05451734133672 3.918728674122653 
-0.5494272872619814 9.51061812879375 3.928863009297226 
-0.7702996979016554 9.439842586631176 3.787515423632811 
-0.5268424692186374 9.971749296226237 3.812444095625437 
-0.5766557418018541 10.01267265281561 3.910315799599541 
-0.7222248023338591 8.799945897092952 3.87962021442879 
-0.54760647667249 9.164698055651673 3.836245660304616 
-0.7978991838308267 9.523620079608071 3.807139545740032 
-0.7933770293846596 8.848679053043295 3.871508898214721 
-0.763544083465135 9.412893863420237 3.800455134839234 
-0.8013663223669691 10.00629325722421 3.901300240522005 
-0.2902325675458197 9.778423975280967 3.918618105851972 
-0.5836946763404017 9.934175356304639 3.966509605291098 
-0.5351020830718656 9.903882593566491 3.850450706232152 
-0.6937975527192843 9.712703181510181 4.001817811308698 
-0.7723951273797152 9.076416686925974 3.79528209439198 
-0.5574436891885078 9.465912502708132 3.81415128283141 
-0.7758163590562646 8.760078647227925 3.831083708934797 
-0.7150676289746858 9.182083600037075 3.834006426117629 
-0.7541289650408676 9.432973038153786 3.784319501837792 
-0.74628688476128 8.916961055021504 3.886824619292485 
-0.6036741599503305 9.853196556588234 3.977554728432843 
-0.7361002342724486 9.167081896972098 3.914991308058017 
-0.7775878018731177 9.35119398629997 3.944415782847531 
-0.5373310542037466 9.442882286495855 3.856435348302458 
-0.544757664070511 9.844361524573586 3.837238996045672 
-0.5373973511168924 9.880131847180083 3.858652384434878 
-0.7871232428906376 9.879143096105421 3.772802444329193 
-0.8553113171430451 9.866000038045634 3.85785245008251 
-0.5956153415760376 10.03269957415626 3.811108005464821 
-0.6978393687698593 9.966611536187145 3.768201587684578 
-0.6409014354927391 8.907986823018387 3.868375687571601 
-0.6732155748810883 10.28073749162225 3.922633903286346 
-1.046324150420229 9.764954716537064 3.853778660388946 
-0.7380985983683849 8.913627751100654 3.884635853387851 
-0.5410953847738639 9.902796933287672 3.906407234257864 
-0.5333377479794481 9.921242383708741 3.850146360794496 
-0.7381587593705816 10.03477363283051 3.796809673693114 
-0.5566025911973695 9.305588229076179 3.844919234141487 
-0.7883228240090827 8.757414765500981 3.910607293942862 
-0.7708356977353451 8.809296827562395 3.825593962866696 
-0.568812265130994 9.71130228894228 3.852945670742949 
-1.156929175913725 9.6050945222994 4.024698410710894 
-0.7040033292565768 9.079392365202075 3.865656669968676 
-0.7462404734778052 9.726036984038082 3.801874085303844 
-0.5433253344624022 9.469763464154587 3.919258844132052 
-0.5636733232386655 9.730310977229552 3.904481331838336 
-0.6950442149168312 9.818384733752733 3.760208062341401 
-0.5485904696183903 9.664672059996878 3.89661037865696 
-0.7983817674064431 9.677090990398151 3.838200632823289 
-0.2655874966713782 9.744896375439234 3.889688043260108 
-0.7272375528051118 8.773752984558303 3.907593101322431 
-0.3889787590407808 9.865190296568375 3.920859229343594 
-0.7843055299555439 8.818669263330298 3.852412126312565 
-0.6310573858974995 9.706686674127191 3.987687654398673 
-0.6677338994187119 10.09108320676443 3.954653453382596 
-0.5773181308203229 9.094726950521125 3.916387175796633 
-0.6287806221592681 8.750099875967683 3.834290716976074 
-0.679966450809508 9.650799363697301 3.779097837648959 
-0.3996762716088248 9.890199116965448 3.882549823177845 
-0.7722538273857931 9.329843993281314 3.809999804768579 
-0.6265700659785274 9.323437310811423 3.937230823167182 
-0.7085728531180198 9.658976240574932 3.993088297333448 
-0.8165279467464976 9.879022147420637 3.883493800496047 
-0.6330067772703318 9.762273273529491 3.984357833413985 
-0.6279819212354643 9.061412564716777 3.809601194601939 
-0.5754705864369848 9.269282466253671 3.831080761449559 
-0.7490607203155769 10.21104154788403 3.845938243324754 
-0.3535546851510487 9.846474700000947 3.906910419418648 
-0.7098818554083246 9.97670614020431 3.942689901633647 
-0.5261401473129799 10.01154452318008 3.897232781750033 
-0.72520137343747 10.0124780167262 3.780709893027094 
-0.7496284474943815 9.433973558914817 3.95093213965307 
-0.6474374664076403 10.26080869772228 3.84533795153683 
-0.8098240597822138 9.618305950710338 3.836153435540157 
-0.7254793447698582 8.902057529469753 3.877206129468938 
-0.7662761370037467 9.843443871972639 3.962785745793833 
-0.5611607577050999 9.706530385236327 3.871222105601077 
-0.7043202761983085 9.044861446751483 3.862843110825358 
-0.5956644225339442 9.47744117213848 3.779572268851528 
-0.6124552593958053 9.976753933355111 3.776015154593337 
-0.6884465353543413 9.999754655917977 3.947961414208736 
-0.6380353237732235 10.14619762523069 3.854735295138648 
-0.4118722268937551 9.865426738325874 3.927191147386289 
-0.8218184655048004 9.990656819910402 3.810235295482282 
-0.4266697454891278 9.927173544777245 3.863497336675858 
-0.7316696263333591 8.767972390324754 4.012123046492873 
-0.5688785596820795 9.166447799410413 3.813592236943184 
-0.2815385238886561 9.747539777224013 3.951026282368993 
-0.8186658616427173 10.00418040741653 3.898067541860697 
-0.9364257944692732 9.887246009998361 3.907434029076005 
-0.5350270310056554 9.909204889823608 3.883742104690865 
-0.7865093449513484 8.772034817098826 4.002259883295672 
-1.028141419595049 9.821367400641709 3.874803977103588 
-0.3679106390013992 9.759692180473561 3.865208814212202 
-0.6304405691012402 8.777715438074219 3.8583896352622 
-0.8076099691641965 9.037692525388351 3.870365316276997 
-0.7699829343936253 9.715043768073485 3.821421368143407 
-0.6941346895904807 9.389201275287162 3.927825345145123 
-0.767854251245891 8.927093748294405 3.891221250679804 
-0.7937756217412134 9.662594471240659 3.936112626904006 
-0.6772878621658085 9.594665910619584 3.971696867111782 
-0.7030345084728395 9.876682779501074 3.757214326082179 
-0.782679863943847 8.812158210135369 3.868934076701724 
-0.6375126388031637 8.828634563272963 3.870947731301105 
-0.7390887019890831 9.807699234498676 3.776587536559121 
-0.240052591816726 9.658904175663256 3.943950609062786 
-0.7545517310165215 10.23556432659594 3.866414100172151 
-0.7785652010459013 10.02583380405171 3.879657585214283 
-0.7086106412136434 9.192303548322156 3.904032108884476 
-0.8237206695798456 9.390082537808578 3.884783430250236 
-0.5524252954006049 9.600238241900929 3.856745225209607 
-0.5377559652641326 9.286003573800945 3.866774872747398 
-0.5750583241099314 9.897613534426078 3.968063857381754 
-1.029696496807655 9.714011663566545 3.893165567383639 
-0.7542973542468585 9.871840463807937 3.969905778572898 
-0.5751321787266789 8.873062683780871 3.887106749154231 
-0.3377622226393676 9.73145549206424 3.878004697940611 
-0.6662461495340657 9.276057666278982 3.871767950542625 
-0.6020007146558419 8.78735924082312 3.994505003289977 
-0.8185401928366758 9.543531900751798 3.878148846464235 
-0.6209878090429144 9.289503190141959 3.807183416367594 
-0.5498319397257505 9.943786775071763 3.957781202212844 
-0.5699328130322149 9.761218394365844 3.856984877543061 
-1.124232938517278 9.675409958590578 3.913095858983626 
-0.5865013628791719 8.822132469270768 3.8163946307701 
-0.6333776591660233 9.55664363123328 3.762640981449966 
-0.708865262955176 9.779010227450444 3.769636071284379 
-0.8066291922331469 9.50146635984742 3.82306032016105 
-0.3317371980285928 9.744760832967007 3.935594108564383 
-0.4213099031185522 9.810148879739842 3.886320717054626 
-0.7508855652871849 10.17997728693808 3.884499046434803 
-0.6582943387609086 10.11338748685965 3.835917928902722 
-1.218045276049624 9.57912634812287 3.996144389514241 
-0.8061477420266253 9.450435807704176 3.824203581216195 
-0.5947932219660732 9.478419097723094 3.952216213752824 
-0.5034825433516 9.943210533079336 3.825331342324972 
-0.6907814065123672 9.254805544214165 3.875199672886731 
-0.5948206090364687 9.863014151570688 3.974355483277743 
-0.6762948356703322 9.890006943250452 3.985070956414385 
-0.7275188834008302 10.05974556670253 3.89757267519493 
-0.2770672572262592 9.763924670424736 3.928599881670126 
-0.5311289896564613 9.512082604712647 3.906427363664105 
-0.5768702711060237 9.888197308142582 3.779493838088802 
-0.926444941096764 9.819535652812725 3.901710640724078 
-0.816818830686428 9.975185171685041 3.798664173853182 
-0.8159006646530049 9.034483940893196 3.835238773001536 
-0.5626828772000294 10.02912651910293 3.880206782510462 
-0.8128246091097608 9.583374993752562 3.86660585098442 
-1.120898262831021 9.645447007632278 3.963972215665704 
-0.7675556788581519 9.634018880814759 3.789056147429688 
-0.57650626480337 8.882520856363309 3.885263499904346 
-0.7213549145432789 8.752763981314999 3.852846066165174 
-0.5901447728538286 9.122136817626451 3.800085652997619 
-0.7248775582396856 9.34283437834813 3.934842922517432 
-0.789220567537362 9.912766436080988 3.949286579875652 
-0.7612081869623643 8.77679155261646 3.810805341173575 
-0.9195209692663802 9.910263201495663 3.900330565354472 
-0.7770702913442031 9.493238363192646 3.781729704732062 
-0.341388759752757 9.826901020620452 3.855784737258203 
-0.7889774185528234 9.927322957686163 3.947915881841554 
-0.9926059790380714 9.862089873857721 3.852904945323963 
-0.5833499967558864 9.754267501753981 3.956543749685582 
-0.7560472912587889 9.794358241987378 3.964000901197956 
-0.4154874041158593 9.905851454956844 3.885524401663607 
-0.5580640683925633 9.116940420158695 3.908105214300409 
-0.566412275031217 8.771893708616647 3.97202485472956 
-0.6252418660237755 8.926551093395631 3.878565363355904 
-0.760305389726651 9.398945531695828 3.800789846743587 
-0.3337715035016981 9.796617006239082 3.843457503642224 
-0.5421036309963327 9.086385700628805 3.831676341743259 
-0.6201409377787394 9.518553302278725 3.957733449610225 
-0.7797470071035183 9.225276412386123 3.920718121761322 
-0.7929430470194707 10.01463040758088 3.892998740280843 
-0.6274453146926227 8.776256652768954 3.918306015799327 
-0.5415705669848189 9.556654082260899 3.901382074669374 
-0.792682677000687 9.700879813406964 3.851674013876204 
-0.6376277772484545 9.48265839602851 3.781699319130627 
-0.812165244162061 9.439949026943982 3.837211702147438 
-0.6613143344239678 9.235792018449359 3.87313267880329 
-0.6827666706341986 9.362944258637157 3.897356882002147 
-0.601226095325387 8.950425096311571 3.808350191305595 
-0.8044754756189583 8.98049089304029 3.875768106965772 
-0.7811389092943453 9.753920829192303 3.824771532507598 
-0.7360673708271626 9.733703137325159 3.978960534880461 
-0.5411182986244809 9.128912285528319 3.846603865850738 
-0.709627180048626 10.13179500973509 3.942517778364569 
-0.6068355711220418 9.530260673899935 3.768623869460841 
-0.6053517353446488 10.0338715877585 3.808508983050443 
-0.7273427862819655 9.841719834560541 3.983123854733141 
-1.096936439768742 9.693286211689591 3.889196476777419 
-0.4620903370649671 9.886889251574337 3.823534176360226 
-0.3222672306729708 9.75267743022822 3.94426202903073 
-0.7506181966057196 9.667169180739222 3.976175017513669 
-0.2627812308057441 9.751997953798178 3.943558332186062 
-0.7150960446766752 9.589256811806589 3.989824117672437 
-0.5961703284130019 9.263022491930188 3.938219024439626 
-0.6807994625061441 9.987673911798842 3.773969009157613 
-0.6387500686428071 9.969419172927218 3.77218907153692 
-0.5617164526560918 8.957818599596038 3.886395389522111 
-0.753393725383078 8.891723021493322 3.801588558470943 
-0.8094022832564497 9.70532462002922 3.903304951731105 
-0.7432225949277662 9.504042494108539 3.952820959719006 
-0.7717879706363318 9.905892208536097 3.958353918608492 
-0.1715693672152152 9.606740198135984 4.029726957824543 
-0.6389913845584201 9.717542963185817 3.78642729092027 
-0.7040880005483352 9.133744217616842 3.845488691771012 
-0.8129440713342941 9.248878855703101 3.844685950878046 
-0.698904107901129 9.440429637563797 3.94973050049706 
-0.9315292324089846 9.915387685401775 3.848895648889095 
-0.4231441649315175 9.900637973449097 3.839846444044422 
-0.6403091012496984 9.718860232468236 3.991209183443093 
-0.1850105824804583 9.656314839055065 3.968743442695907 
-0.5885443197122474 9.856868472095298 3.96964269065192 
-0.5344980775899754 9.510487808742532 3.865869200736094 
-0.5620385584885954 9.023597874194971 3.803179814566079 
-0.7383668235295198 10.14549346304247 3.932117088985404 
-0.5592690135546299 9.647320696331086 3.9319322107889 
-0.5667462272097208 9.023626136432201 3.884966822572695 
-0.7165814133205759 8.828693716192577 3.849621185125576 
-0.5437838255056874 9.843942178659541 3.846633925357353 
-0.7157871375080271 9.720342052131675 3.988625636304999 
-0.7802120058214326 8.758588206282502 3.893289481492091 
-0.7925604170555851 9.500040472261492 3.798447321878292 
-0.6234841411168265 10.0306509020708 3.899041943311929 
-0.3785492213128898 9.864354499033904 3.91540208321861 
-0.8225736854697858 9.905516106188328 3.851483320944396 
-0.5618317195783558 8.761109878915434 3.977783468395105 
-0.6178863304849558 10.01656671777842 3.79194170528782 
-0.7117556812438531 9.050672441119156 3.836804693975252 
-1.205968267165173 9.600534160097229 4.018633275475533 
-0.7058459241267591 9.135159013367339 3.892224534813561 
-0.5430545535924551 9.190506721579819 3.855701247965869 
-0.8118561961412537 8.967154613201572 3.848831109655581 
-0.7366654161838008 10.16143415127362 3.844337137264106 
-0.6353418654324632 10.23544200839543 3.834259704053217 
-0.6823690700169047 9.377941872399534 3.903866756274283 
-0.7442122193574445 10.15131181156433 3.884150324523404 
-0.6305819823079535 10.16706363687524 3.906543994779402 
-0.4354062724256012 9.893248693958126 3.831184816316076 
-1.207523599295591 9.590409476121883 4.003801019126079 
-0.5057033371915801 9.969337765151447 3.929258543175551 
-1.053776442738789 9.80310573689906 3.905315984912993 
-0.7931318787782198 9.318591135114699 3.929255059872261 
-0.7380870808707748 10.25789043327801 3.848837073526495 
-0.5691169939481336 9.039496076000457 3.801368366981546 
-0.6098271647008633 10.05575389334949 3.847048360169599 
-0.496338465739874 9.978608223227045 3.834320828754117 
-0.6407471793140991 8.860283461601476 3.870427840923346 
-0.8851648384917152 9.970300874908947 3.89520148885269 
-0.8607204377491355 9.993858053359034 3.889973666115335 
-0.773686444526878 9.938745225109638 3.946457463130846 
-0.636256779592791 10.15450559542627 3.853260372421736 
-0.6995267782620394 10.08903253765666 3.826025912421589 
-0.8138159274883279 9.615423037862467 3.850455613577322 
-0.7067563548551091 10.08300293569759 3.938959887126322 
-0.9637326710755867 9.839144212278066 3.825177095440472 
-0.1667650066663371 9.615986594126021 3.95457601858723 
-0.7161975877157405 9.214315258240397 3.831024279517691 
-0.6458215229738957 9.595427029089823 3.966201117558045 
-0.3312261493314064 9.720923036954696 3.895859897351938 
-0.8013515980631323 9.745817603526831 3.886666744273021 
-0.9572250133449763 9.802597216642308 3.833708658968006 
-0.7039129396609545 9.11892401190549 3.854211209075302 
-0.5418181258223257 9.281283316740881 3.886487953793623 
-0.6850056973168129 9.605276877052797 3.772082518862069 
-0.6563042501732753 10.02254276479872 3.922777553595707 
-1.149042126334926 9.637149041709606 4.02298100843001 
-0.7340241741774531 8.859848833726298 3.920573745209745 
-0.6038179091548548 9.77111943923574 3.790836125017671 
-0.8799824704059003 9.911901979520575 3.914635567470243 
-0.7374509207098073 8.755847995085924 3.916223078394403 
-0.5694243593128944 8.85373888290597 3.902403127187886 
-1.0576911207067 9.694481404034182 3.902151189921206 
-0.7815742805678042 8.867101516420943 3.834524130525817 
-0.7063391088363532 9.472246454059574 3.957886999031663 
-1.170763426572935 9.636493187834018 3.947655867456199 
-0.6146820516317856 8.751214681235771 3.970169359910693 
-0.7736088507947682 9.841727387911885 3.957885558925218 
-0.8547912631219463 9.91954239754266 3.824392782599578 
-0.6265076087930068 10.2032963215298 3.852650241897521 
-0.2730476758765417 9.757266980454521 3.941701930813245 
-0.2873208253267955 9.75706228879049 3.865844491314359 
-0.6248106758095042 8.747328097396913 3.881079902425783 
-0.683676484709687 10.17085388340808 3.965117327754025 
-0.837858582730709 9.899190309225991 3.895009353536068 
-0.6769912694287575 9.806991459826875 3.760197070359791 
-0.8124687654017611 9.186008712833019 3.844764356227448 
-0.5042608133342656 9.997055554663634 3.908720871268009 
-0.5444257627950417 9.082406484822737 3.824660396482409 
-0.9968833720844482 9.799177234462595 3.840359502528444 
-0.6806187102412907 9.378252859324482 3.870607379245757 
-0.8139266149532853 9.035496932181356 3.862061161978923 
-0.6664703373436229 10.06782101300667 3.914673110596702 
-1.034064862745339 9.794690951562618 3.930768090373234 
-0.485085010950094 9.893322846925365 3.910234582342751 
-0.7106148849685712 10.05795156074378 3.811683303218101 
-0.5636572356498419 9.805643617243678 3.810202588254574 
-0.7687627682314803 9.296903513759222 3.816472710258767 
-0.7333193649517222 9.289701859145634 3.929754993710295 
-0.7622654624874744 9.14881614151944 3.919168026714811 
-0.6328171324972591 10.07147905232806 3.88677452017532 
-0.7889319863956896 9.23033726025638 3.81684729937265 
-0.571689952684131 8.764330445912531 3.843708013838998 
-0.953783415390216 9.890994188819404 3.836009663489342 
-0.7047708434705571 10.08223095221907 3.826174524098878 
-0.6273808492904578 9.155656051813796 3.820819578306709 
-0.8371706424621498 9.911638302271946 3.842404977387527 
-0.7127811141009552 9.030632402774755 3.834754395714383 
-0.7172901644419034 9.826416327398761 3.76418679153085 
-0.4139682216149931 9.90147540687369 3.90835145471181 
-0.7732791280833842 9.514521000214605 3.943340283433332 
-0.7367253455754021 8.79082260390987 3.813121671781555 
-0.5898449061149842 9.421351162045607 3.953446415505899 
-0.7413428007079734 9.777133963824021 3.787784629758902 
-0.8153440479539259 9.31056386959731 3.88160068515162 
-0.7669398657140651 10.01225309079889 3.89656324687482 
-0.5785164673983255 8.859785339614488 3.918563361643678 
-0.7842852480149551 9.728965053770805 3.939490022752558 
-0.6064129519626887 9.677108637394047 3.976638326271954 
-0.7229898440350401 9.760176022655726 3.780643562280352 
-0.2510873162813387 9.727281044548844 3.892734778068643 
-1.116893624795584 9.719276929577653 3.904804812593077 
-0.926260327707753 9.828512370873927 3.827517604990145 
-0.6244785673175401 9.961838367807912 3.955013147949215 
-1.043225498240392 9.740088860240247 3.949866268553589 
-0.6989049451727275 9.229612653811845 3.896603838079026 
-0.5855057116494085 9.406177252292183 3.95234872456146 
-0.5371839128148351 9.360025626220873 3.893914020636043 
-0.8152674811404457 9.905729975585743 3.91803663417227 
-0.6312617336856986 8.798293862964046 3.87035870937677 
-0.6672649440327351 9.437834972512254 3.837271137416343 
-1.101957459874598 9.673759304795258 3.92239204026029 
-0.6927179325475944 10.12340999817113 3.962121525141178 
-0.7289832784790578 10.07959614444785 3.851350911336723 
-0.7465806342978889 10.24239337063103 3.846621994670981 
-0.8094533921239144 8.995143562743424 3.823426066043477 
-0.7531008640849937 8.749981585885278 3.943479882853435 
-0.6186178189770269 9.128226341235683 3.904536170161244 
-0.8640584174451862 9.890319535881165 3.917619715161227 
-0.8129731651724035 9.926321586352765 3.93613794494758 
-0.7194002811155322 9.43685268895582 3.785516718174067 
-0.5454349662037599 9.951855499689202 3.954021193558685 
-0.8131215069802034 8.960360505908918 3.840839748351497 
-0.7150203130851016 9.455529927372348 3.955865867267777 
-0.5724298880599193 8.835775507183913 3.91142706134124 
-0.598893202650485 9.489737294439905 3.954293643856832 
-1.023966675654802 9.75365154747195 3.937277650055449 
-0.8037143905560804 9.369271517646343 3.829915964366966 
-0.548139797734164 9.223782411256373 3.894736952776842 
