ply
format ascii 1.0
comment VCGLIB generated
element vertex 872
property double x
property double y
property double z
element face 0
property list uchar int vertex_indices
property list uchar float texcoord
property uchar red
property uchar green
property uchar blue
property uchar alpha
end_header
1.744044633970981 8.005975240694353 1.785374986544248 
1.778269652109142 8.21922989180776 1.619163210514603 
1.72751054437932 8.006233008281496 1.747401615170852 
1.845527246876954 8.851038001930242 1.503626958822613 
2.057493278548195 9.023520776678867 1.650343967083771 
1.826363760931303 9.098327768806129 1.654036182426782 
1.738912586391278 8.190896072876621 1.725227141325692 
2.024920071443383 7.958197111493818 1.697116295351873 
1.763462495415483 8.968806716256077 1.711873962699299 
1.874332708931876 8.246611844044054 1.696370830444252 
1.740864968589151 8.312729192421267 1.683058896942556 
1.953814849001735 8.716970176260318 1.517042907614319 
1.74331555925824 7.79822184878557 1.874002988114483 
2.09780196792055 8.754083915882992 1.530722875425318 
2.048185731953491 8.969723585180958 1.538811558528475 
1.990945516255205 8.728275943364086 1.75699040466775 
1.772266771517516 8.274199121505351 1.604198800312965 
2.038307380918713 8.0212752670373 1.59547304576495 
2.025729649447079 7.790558013890609 1.625233811154812 
2.057899713737737 8.266671172876825 1.671428203990292 
1.846640940997458 9.21607906040056 1.668715654985915 
1.939505404747463 9.082525052605778 1.723226490414361 
1.915033625541742 8.811984711963598 1.530098079206341 
1.738546415350888 7.746635095549393 1.78886577754672 
1.87091311116091 8.024620954747704 1.72758306176779 
2.002606087291185 8.892145573604775 1.750384493885629 
1.823901448450394 8.518626864001259 1.731167397726594 
1.917948540792923 8.087809883529903 1.575614435027595 
1.764094419408495 8.843968067573053 1.617970792031461 
1.970948094564554 8.725173045432909 1.502529151251256 
1.908801239128169 8.654896172573585 1.524302330712787 
1.754809662850301 8.072605777021765 1.809491030994746 
1.749540229935784 8.206372861999819 1.765004568171111 
1.742052845890411 8.188464822670895 1.743274304184154 
1.843577092269923 8.856927103466973 1.495140871284601 
1.807697692352388 8.883437038818025 1.49966766531234 
1.889650152754792 9.178219995051272 1.513431728750805 
1.948663534101153 7.971858057055383 1.6609960329542 
1.655773301795351 8.9860226867515 1.732848983622428 
2.023085567778821 8.903759231484837 1.526859617681634 
1.799587808391303 8.025087495581568 1.794901171176991 
1.695934462055732 8.885760107989125 1.685243681900303 
1.938160876524994 9.132533569686998 1.5342437404203 
1.870803842089584 8.742147768532369 1.728707633720933 
1.813600101019994 8.953831685072014 1.520412929605966 
1.995544032731116 9.14247793613481 1.710732390588422 
1.827097974792288 8.778931323184024 1.73991168874317 
1.953570042267137 9.222334725284517 1.558931531467934 
1.765063876000377 9.051655036205339 1.753078161529555 
1.912055419309547 8.821303118684089 1.523621169895168 
1.765765590909298 8.862411291842092 1.638015230760822 
2.036854724730363 8.401007626162961 1.744562372368637 
2.066745767056027 8.609529897951383 1.73499046988364 
2.014747416980745 7.903368882656712 1.680947428185805 
1.948498229002535 9.126922516341491 1.543845144061716 
2.01067230168335 8.675781579717027 1.51467979301005 
1.872007243158402 8.977764908206092 1.499154360477493 
2.161842346850832 8.634180457683104 1.598236864556279 
1.798811880055799 8.944146244501292 1.530814785379835 
1.956087240698704 8.310643328471038 1.713011214759881 
1.968462049467147 9.082976139411178 1.676283836498104 
1.784242444159327 8.600139172467333 1.559133323899021 
1.759890262408766 9.00793801049932 1.787497948932097 
1.994317412050328 8.738058222299518 1.485523248467047 
2.179460973410121 8.678336859404777 1.660104785214901 
2.028752664131029 7.797674762311336 1.574984596359524 
2.033267875562077 8.893477496401029 1.522279746271382 
1.82092956629951 9.1163071991751 1.660483874762946 
2.070447676605534 8.990857188518856 1.666391256916799 
1.912766529198395 8.396910625447145 1.602716722723547 
1.867751618829037 8.005018544232129 1.731394677224764 
1.977735788342715 8.053390465995127 1.528762655170605 
1.929732840292723 8.038740710407644 1.653014884888555 
1.939825472821062 8.661215779565806 1.514272960393226 
1.745029079134756 8.821610135867118 1.727612678670794 
1.715171261192896 8.889212329915161 1.759479774757206 
1.757455363375372 8.284146822530818 1.628193829685484 
1.858061188160164 9.033037989658782 1.5237959375762 
1.91881050658955 9.245630686564347 1.567212951093252 
1.895676627698807 8.458904644699242 1.700952469825476 
1.990385355666805 8.595399659847772 1.744334378252575 
1.96668615561466 8.528798957694711 1.522372712732219 
1.903279446185737 8.375578509553204 1.638704854693989 
1.973214408837331 7.902860131220582 1.69405824958746 
1.7970055998904 8.243082363123897 1.790925185222084 
1.874588105272342 8.145666168568592 1.684182581121384 
1.819294417753807 7.763230663816821 1.740292646411542 
1.940023034168844 8.853466136346997 1.76073527715476 
2.013317771636091 7.815644819228709 1.666245102103576 
1.751142140782513 8.288900068959139 1.636825016995986 
2.155475320785375 8.761087851726575 1.650561950934277 
1.878670778938137 9.077705753029058 1.572403386069678 
1.865482188954225 9.116531862611367 1.593374356310622 
1.797987847089831 8.77947322374664 1.585312925303933 
1.738210441542728 8.122657412866896 1.722567692716847 
1.970462940253622 8.138603158819317 1.534952414511519 
1.913609191235083 7.744990448763991 1.600800242000985 
2.042280856996863 8.022312399419615 1.643367676914314 
1.743852446269859 8.364862027185376 1.660742015407958 
2.045733334734148 7.937341756527617 1.615432373638876 
1.939717677199469 9.001785002448969 1.681353426202647 
1.783362755670699 7.840922201388125 1.839956653916374 
1.77066863600436 8.728072609747734 1.760752230276778 
2.069347245970436 8.907097520749339 1.707485840223157 
1.824577851156405 8.705415943636343 1.529656186293152 
1.659827830890785 8.889205468361988 1.781769249806262 
1.774468753663348 8.8747803443331 1.668394696622368 
1.657801203251099 8.897398671329926 1.717077187782972 
1.743663756138732 7.93818785888331 1.699171405738009 
1.733310575186951 9.031445080004396 1.707253010772737 
1.962814839952453 9.019027218771019 1.677960350216186 
2.029687923586609 7.853675006883186 1.582923792777065 
2.069905593101169 8.485643867469577 1.67645087658633 
1.953866827132131 8.218976262211584 1.712874799773439 
2.041996897407558 8.233716256959392 1.700691107357419 
1.73913287568245 8.128525173975715 1.742699714243483 
1.932374590083509 8.63798050334197 1.515947514187326 
1.674383003674001 8.976567050637957 1.638512409442103 
1.93141853691514 8.096019895975314 1.551299196593398 
1.955633767934655 7.980778395493288 1.661553011372742 
1.815763896143931 8.69321175778844 1.531458482101763 
1.967452363624877 7.743702327005012 1.645298258707467 
1.85014415215086 8.957080419996291 1.495997061183159 
1.795725578628754 8.995946679847187 1.65373420324332 
1.933171794841713 8.320820875080354 1.684515263416858 
1.991427476031226 7.933727919267182 1.698847329024472 
1.978440201944879 8.653625619015124 1.730727235856145 
1.907608633316776 8.600625147042042 1.748029198673543 
1.830774736564752 8.107495742707796 1.612154850090348 
1.860330872937896 8.957476840365663 1.494104116396602 
1.830303013807892 8.98545429974306 1.496984958813569 
2.034644004937912 7.810272036196948 1.606016437916964 
1.851013530876053 8.126131058423177 1.743626102219477 
2.031778836189807 7.864428618102814 1.570677426686165 
1.936528889884377 9.114989821016922 1.541762703365285 
1.755187602710778 8.973542143226156 1.777383335847397 
1.811234793528465 8.698477303051938 1.716099725543129 
1.877586412128309 8.837961108028699 1.502335762599238 
1.80912121501752 8.520560108839023 1.735990795854456 
2.0050504356352 8.855028961829195 1.50854045080146 
1.752529703963322 8.716943473663694 1.708060027903449 
1.741222629003031 8.80706172461414 1.738103571578422 
2.059988424399331 8.25758629670214 1.613379945684272 
2.043482492159463 8.163942332981827 1.677819441674893 
1.854470421109569 9.088750217486439 1.660340062195666 
1.803417634460423 7.792984374631455 1.807173131152434 
2.043458307247679 7.9822944022903 1.629518570384261 
1.742973119677643 8.43208896773444 1.68527330912648 
2.051449368899182 8.264518579838406 1.694244619523336 
1.889692619224808 8.319582390124131 1.69445012394383 
1.808130121217219 8.12580845123964 1.614986920788109 
1.629559664712545 8.918157037710332 1.751614324983381 
1.726588601643685 7.916940600746009 1.764558913675793 
1.960633385512915 7.743543382571763 1.637340524469919 
1.749074182090382 9.015261581326428 1.690985423830138 
1.910473242238504 8.030329211427956 1.586218392416851 
1.988403024549759 9.209086563245467 1.706582488667887 
2.065391966472947 8.656000394665941 1.754757821347048 
2.080921400963384 8.897055133061965 1.535434593626229 
1.744931166216433 8.727102189539286 1.736197391583881 
1.836575572534979 8.799859742711456 1.534285292478735 
2.050410072635259 8.046747273713635 1.612653437995835 
1.824849377252206 8.310344907668309 1.77124100947178 
1.771953532458771 8.96435764117815 1.735789328244752 
2.110358632985614 8.938846087010738 1.658786958795975 
1.890361582513065 8.332034429795378 1.658259507420813 
1.758115374583139 8.888958027744412 1.710712822814012 
1.853352344719861 8.516694420383367 1.733014602290944 
2.076077931100839 8.800982947641932 1.73450190560983 
1.859050242051712 7.852796751862315 1.729545543225249 
2.046288483670635 8.081819035619098 1.647072449669736 
1.962892876528506 8.223131744558319 1.547654167995996 
1.963339243969505 8.862078853879073 1.510140365198258 
1.913594202235098 8.549356806219764 1.745459345367523 
1.997742881331156 8.706707866470209 1.755437044538763 
2.065641372365719 8.728841620146426 1.51393013846085 
1.898979274720468 9.146996054851961 1.721822586443331 
2.140679885505474 8.822101530345968 1.647197492024862 
1.999611933505298 7.865259303932749 1.704527055492834 
1.772292801281688 8.450490360989729 1.738010998380078 
2.096890219647263 8.885439281717979 1.685841594656352 
1.987473405816947 9.010180106631147 1.679745807348631 
2.1420851593419 8.603561249419201 1.633651991837566 
1.7139287266139 9.015445448189841 1.724287459614066 
1.850475251442174 7.863031115043098 1.676469583758336 
1.952801538092916 9.276964893306578 1.640579576453964 
1.682748801795173 7.76413405436468 1.83011131507133 
1.802789916981779 8.683489186354706 1.717870743631339 
1.74167909967877 8.802421286898491 1.770015552879921 
1.870679072928032 8.058408866334107 1.677060987440778 
1.822934685665798 8.664163327414016 1.525591872133525 
1.853010919451205 9.035421057141768 1.65414590403251 
1.778904354987154 9.05322940086841 1.694464796349529 
2.092188400848575 8.66511008068581 1.538149666318651 
1.841868206024846 8.273716951696912 1.576015482729221 
1.990534179758117 8.670024021134859 1.809418075729034 
2.071935965106644 8.447300437840871 1.61524259907272 
2.096372939513977 8.630128481882878 1.608951364000477 
1.775876694210144 7.800285339937719 1.678766024428021 
1.769165327287817 7.786250153403868 1.851264777009284 
2.038458253516098 8.82893979730872 1.734338013816626 
2.185319380037396 8.715134022717043 1.621903158236508 
2.041528461891479 8.051143302328539 1.676094404763812 
1.793081439493473 7.941837531916907 1.822420531383762 
1.739727528386145 8.362104558135993 1.676605665171567 
2.02761735014472 8.166622176711636 1.702997628599225 
1.738331096100319 8.244020273429113 1.671344618248777 
1.897965528810638 8.640446377399718 1.498350639155917 
1.872526900051781 8.092691195917157 1.667905699450529 
1.796364383163469 7.880909426140077 1.833759987180205 
2.137995202175286 8.868592361838445 1.553152958454225 
1.801900883238307 8.87677451412597 1.587653264448835 
2.079756311964309 8.77834487044692 1.517121387101348 
2.068218111675729 8.471086970888063 1.601145276780644 
1.919137712246403 8.74657037009294 1.534947360426774 
1.895528177125443 7.878213392910251 1.627831476372245 
2.058006701464454 8.745753066559841 1.677089874208888 
1.938679363507794 8.141373122176176 1.685594891893557 
1.76807642411784 9.054879104955084 1.70283715555252 
2.009063831906197 8.286476113653041 1.746865502387885 
1.951452682725533 7.785775293988006 1.53831301028906 
1.952931956589928 8.33660069307949 1.70536687827172 
2.034601186230563 8.94376518083763 1.528262959744281 
1.837842431779919 8.676481286162787 1.51256611965856 
2.134095036776834 8.938894099123971 1.629437041227862 
1.761267605185858 8.578193976886247 1.627427704184643 
1.956311777470237 8.431902400505086 1.566589297859617 
1.872691638016997 8.609197893182703 1.500015608065659 
1.954174576825082 8.928646688657039 1.515636101508853 
1.967068205799981 9.052821933887799 1.556006227407464 
1.958576357931625 8.663030388475219 1.7370545125222 
1.83895586625072 7.936034289352173 1.787765434617685 
2.016512978694384 8.781975563948368 1.743987782369291 
2.075896126707188 8.59694478096907 1.652859898591245 
1.996570521512526 8.437043792128101 1.755385635818122 
1.848419422771156 8.818491263434526 1.537894565748042 
1.866945396174473 8.026973948071094 1.674127103689354 
1.804806348408794 8.184478892016202 1.799789550696543 
1.783605143251654 8.56458493917618 1.704506450397542 
1.954886633891178 8.790328761777783 1.506975688490316 
2.078821774209659 8.287983399546844 1.629901872882661 
2.075298182169681 8.62459770977113 1.719809053152162 
2.011375533770771 8.033009141450853 1.555110591153382 
1.959158117895481 8.008719436989823 1.52708237146607 
2.076677541282181 8.538820693283053 1.631652135846795 
2.156527982861574 8.807822513098078 1.584241758446592 
1.866884187170655 8.867208338805773 1.508186441971072 
1.754729042781709 9.002664037766952 1.684503591830141 
1.911079336440963 8.370776311551907 1.64620779433318 
1.75330435237395 8.131480433735067 1.658889976462657 
1.767989809278631 8.615417070424037 1.63504171192923 
2.010158183899726 9.067557656483949 1.656415468149456 
2.075129550041174 8.659590150619863 1.757316176741468 
1.745113475564799 8.466540978638635 1.676664792565205 
1.997929480307362 8.173432918958627 1.740590060532267 
1.877134317079512 8.407815006377962 1.721798373964147 
1.991397301059276 8.72862359691659 1.746988323057427 
1.904661623684177 7.772611731376642 1.565394309579649 
2.076312722821327 8.597991461537372 1.612203879578602 
1.764186854365233 8.749480246472816 1.803891340328427 
1.945704459809496 9.262046383383213 1.687661015546365 
2.136416067540546 8.781270028235763 1.539829718277399 
1.911493356835638 7.810134114627006 1.681137741141216 
1.838617655404715 8.084100814901189 1.762364951711015 
1.867988337628035 8.126020219210282 1.648123620355544 
2.0486185644358 8.128294537405704 1.652629793330348 
2.03971910679319 8.022263526677898 1.66390253770511 
2.043344793523929 8.202611224462387 1.584512443520699 
1.928309330943314 8.706766198957769 1.744071362180733 
1.907437433167158 7.742191097304002 1.562504366348466 
2.034996991182954 8.293581372954412 1.578025455820329 
1.890627651652274 7.849494955718895 1.618822327678653 
2.061544246855476 8.54900507453366 1.565775737369395 
1.857675312703057 8.807015323815754 1.526680633401335 
2.155958032910721 8.745695537090311 1.656563359192167 
2.116494903726883 8.868084016847 1.671061820934455 
2.148170298589704 8.719807374105827 1.644970296662071 
2.182183772878452 8.697200200264684 1.586193020294997 
2.097958886323547 8.609436792616679 1.630048880366894 
2.053680486900589 8.792814087017117 1.523993972113884 
1.972810812349078 8.488882096132325 1.546127229954203 
1.969258177989152 8.507873411309893 1.749661423541339 
1.973774529946399 8.93051288290777 1.511267283758036 
1.913223174680111 7.964527003938036 1.614918613135158 
2.072963003951106 8.837822384721193 1.723033044521998 
1.82052233576653 8.702338894251129 1.692591852982303 
1.814175056276979 7.897583496340421 1.817538419133554 
2.025842723999809 7.934061499355513 1.649436575552164 
1.754660586512177 8.040390919735914 1.786953160696332 
2.074272045738864 8.59751418632599 1.623330374730026 
2.064086966002787 8.272232032038744 1.641733414313163 
1.909046670816616 8.500675175121378 1.712848983682103 
1.913291188360229 7.92406858325152 1.598303206149446 
2.07510027413169 8.708579023883233 1.7119423478737 
1.832458849392625 8.838526393402194 1.548162643319353 
1.814314632630212 8.814374675724906 1.566779257258012 
1.894380754692765 8.764146325833504 1.529642980082082 
1.770863967595078 7.746749201308094 1.815105432844231 
2.072746333431911 8.665433634985469 1.684030668476942 
1.717345731365895 8.997855379276475 1.599426553790182 
2.069649262528774 8.774385297773433 1.741000321534886 
1.782182596815308 8.815685754742683 1.695066082310462 
1.764019357170791 8.478418694974746 1.719541522411786 
1.943723725662133 8.269312351097744 1.700365087584017 
1.763243067853166 8.856795282428923 1.679187163101912 
1.941012876853491 8.690018010095692 1.744750026894709 
2.172875455506306 8.801310748440077 1.60806623681805 
1.712331021117929 8.87276188361529 1.718985405096736 
2.075726115053392 8.661878395108822 1.525681045389474 
2.081999144386231 8.640923858947549 1.70939996780865 
2.190446326411281 8.710608896423548 1.598967488667535 
1.88674016451984 8.373983055650401 1.706837869823937 
1.842929115000951 8.765857273780927 1.718054541346959 
1.950016307487493 8.788270265141659 1.522201077276139 
2.004995743525947 8.968770713999319 1.526604773555738 
2.049149313289302 8.374158946820078 1.595877005681317 
2.175318407358152 8.69024431185959 1.576879082269469 
1.92720665005982 8.160110788801932 1.668827993572007 
1.91763603776717 8.342075784099668 1.627875415438694 
1.92548857494284 8.50921992581884 1.536117244591257 
1.872369247730525 8.269195873089199 1.728810413632632 
1.720077566896101 7.78915249833736 1.893805635035434 
1.951808151221512 7.817162266937164 1.703471040000091 
1.783244402834544 7.793632549807676 1.679092469847006 
1.753976639723903 8.46177517438789 1.708002484049312 
1.798364312660816 9.067644644060721 1.676035966696608 
1.751109907798192 8.323767594539323 1.74354463321626 
2.000829584413965 9.228522422062852 1.642994754946703 
1.715207709368609 7.908229351051795 1.795734087518579 
1.848731766822657 8.941571099676302 1.703168127890349 
1.963077596062511 8.850863919645452 1.764063582798951 
1.891324337355447 9.012472767242947 1.688161834019928 
1.84207485727823 8.574799470318816 1.513491553556774 
2.007718839637924 7.967587226636189 1.562027162080138 
1.755633111258393 8.865430672939118 1.713625719816226 
1.893509000139655 9.182350407372905 1.711642109704636 
2.028291385145415 8.17550077415186 1.712694889322967 
1.788093116322288 9.043209294822089 1.579773284745167 
1.982567466627451 9.09064958712769 1.580733400600216 
1.981709281917728 9.135101824402025 1.5880275616629 
1.804699332227928 7.87880220149054 1.828618609433517 
1.835683708037613 8.594571866690998 1.716078386388029 
2.008378864338328 8.369682576165701 1.55740465930061 
1.78470677693573 8.674949233560767 1.579924792415198 
1.783860963921423 7.899139217548594 1.659057255190103 
1.988469452834409 7.996613209969345 1.533777119576692 
2.006700742681253 8.759902349999372 1.758577069815899 
2.189555721354784 8.680236821392517 1.630064540951907 
1.733089801064838 8.264289472445068 1.678423689933816 
1.85336916155846 9.131545224570969 1.681533732547315 
1.79252751913218 9.020261330864798 1.770615524288986 
2.098030436368217 8.768998005948781 1.532060282064019 
1.888040784732957 8.329440698211032 1.703491535444159 
2.156737204586999 8.851822647105644 1.609887391013627 
2.029137828082189 7.799480285075843 1.629958457773172 
1.764775589281737 8.519113182598545 1.598334689355875 
2.009333040673479 9.027187007804091 1.547019727446361 
1.871098067416222 8.522287282572968 1.510167303743171 
1.869263881454314 9.155108105095485 1.608582797913031 
1.954940632511305 8.443535558858668 1.743282390286485 
1.807244470868754 8.841310548471238 1.71423643144824 
1.816309540573348 8.301555155329455 1.566314226325642 
2.180204361308915 8.780301100677281 1.612740029887295 
2.132868544089933 8.877768090120259 1.645500393595043 
2.043838210689632 8.014934638898804 1.605785060945423 
1.743652263951971 8.831456547980814 1.732295441061323 
1.973360796222013 7.770557783711197 1.736561443975637 
1.772351131456583 8.732305048221326 1.65182814516505 
2.100601372898649 8.755537406197531 1.542596287768826 
1.872153847354127 9.072824918566464 1.647115800566592 
1.909331098165457 8.74373078939268 1.536842418066817 
1.97848261720966 8.908484120359066 1.748445256924373 
1.734319517125761 9.019132531408218 1.649076162571709 
2.104646554109678 8.947812531085933 1.534921913903897 
2.150802335590866 8.851373976802504 1.586119961415652 
2.087267973996475 8.916361802167955 1.655818315985133 
1.793400924074315 9.035271655971167 1.596447087198624 
1.836414576836194 9.000480518467558 1.653378642397314 
1.858686462536749 7.902845615001675 1.760800828972561 
1.853097963257972 9.237817416623397 1.657270684173894 
1.893853715968644 7.836133689646376 1.644712471381576 
1.823733626169239 8.20472704134481 1.593475363835318 
1.882165803869388 9.06681168320973 1.667676644293909 
2.106483638382992 8.798270154413482 1.536215937575393 
1.862206917872151 8.33636958762739 1.740903869673384 
1.795144948229796 8.567674301204057 1.707248931803607 
1.860632388762238 8.985609331318297 1.681703737414695 
1.940773247510182 7.979091309131899 1.661191580283585 
1.783380937776221 7.953428968459705 1.833367438424269 
2.002193489953083 8.139461523217633 1.740921792864661 
2.103040932572432 9.003427176137478 1.565552643043343 
1.760380385488032 9.037576584650532 1.765125641079204 
1.968670130102947 8.129606173772268 1.727726417987339 
1.970277430938178 8.411892926235838 1.746925503354629 
2.041952015895333 8.667805612107935 1.75975837886456 
1.767571818654973 7.812826584158241 1.845786791936352 
1.813830007064209 7.945651857601518 1.644558626901595 
1.922099985410298 8.361224252069562 1.597660387970842 
2.116146903634573 8.910722006597284 1.554031159350441 
1.939196306565691 8.788349196481331 1.513995831226499 
2.161636750547718 8.654643148240728 1.676463480260134 
1.886616989304758 8.311649330522345 1.701590666631245 
1.919115860191445 8.583410654396033 1.749124904363035 
1.740462276347931 7.973910847648151 1.812878146279692 
2.045238483532422 7.964219514540523 1.598604949034701 
1.988376293712759 9.140548666570114 1.718190894537312 
1.889206621603042 8.391878693066737 1.578851760992133 
1.996665848812009 7.939593020670723 1.705220444580931 
1.958714345612518 8.841344324987531 1.759797435976939 
1.962393892021975 8.488885740689245 1.545492028568491 
1.900349957234713 7.862243122609936 1.569171447863804 
1.869054500933046 8.296090608085681 1.731099355216384 
1.851051723941906 8.410853577742937 1.532253636577309 
1.875372329775485 9.178221250603817 1.692328191884406 
1.750857005519578 7.748233194001204 1.859137327622882 
2.141071836539292 8.921862012421702 1.588055334471857 
1.770993706736174 8.969369922237611 1.769535892053764 
1.772595207164999 8.507419774112027 1.728325686001844 
1.930656206974203 7.783052139866141 1.541146752938703 
1.945951733837628 8.150397469623286 1.541632148011352 
1.833974083489689 8.759552472609624 1.719688486579243 
2.149944076939006 8.845520907227165 1.633617041207304 
1.971454341808452 8.555306210344582 1.754025962619755 
1.839014973362841 9.08028888242837 1.653120517236077 
1.842122694832129 8.165990958332719 1.762796160930876 
2.070063429918269 8.50088551159482 1.685706421864933 
1.866975215572406 8.112168276024228 1.642301260693452 
1.992427921859496 8.778246683616661 1.752308766022262 
1.832832179150808 9.184429723412944 1.674833464675847 
2.157741722464369 8.804620343724968 1.5745081907353 
1.997129948775819 8.831611292168144 1.77175170556858 
1.927789211608724 8.501518087354789 1.542563153251645 
1.803179573970328 8.255081241126801 1.593237286949873 
1.775024399381357 8.226701657961769 1.796361200832432 
1.663349176030562 8.947293037612745 1.675708771155202 
1.761058246597612 9.034836068361331 1.618092847234856 
1.865684387919881 7.964170937661423 1.683974712635186 
2.084817650194248 8.617838810182178 1.581120301494414 
2.094758551439011 8.650598009785492 1.70897626722863 
1.986707792160953 9.129478442879767 1.717248904392005 
1.811630367299309 8.224280388627465 1.791587416206127 
2.017983600372642 8.709319323431314 1.509902388807011 
1.820919128040533 8.534461434722971 1.721211116355918 
1.859914989381149 8.263661968765497 1.631953106332152 
1.953554092232047 7.752883692955514 1.762907815049481 
2.002690472724894 8.660440232669254 1.506471761141237 
1.828551162395461 8.742455976118368 1.542266477780131 
1.719216854420164 7.833875213004528 1.7633658479778 
1.834438847448171 8.0318313480089 1.767121632230998 
1.994231022230084 8.674190386997578 1.750779781686021 
1.774390441753245 8.10284641413187 1.815467863660199 
1.790133814442285 8.89411866866039 1.548711325607974 
1.896391291019091 9.266138403848108 1.655680209449119 
1.913528471377046 7.953295723173197 1.610020835562344 
1.803702036891885 8.30347816561774 1.583976830512268 
2.142306578725372 8.920227787173239 1.624607642717264 
1.73561495914004 8.082624583296042 1.717143745441151 
1.981450568748436 8.640027638953832 1.731905238202792 
1.929738498763789 8.904752826922859 1.742739362140322 
1.765177327780056 8.762372928564696 1.650503230809181 
1.945930048920642 9.069068629047976 1.671475117737276 
2.029530299733181 8.692630010908177 1.517831446223106 
1.901892886257218 8.366609096024087 1.65003086140342 
2.145790887913289 8.873445366157959 1.59480665079069 
2.062535031547395 8.745973607026389 1.690460012250288 
1.906349656147633 9.159575526893803 1.514994413051193 
1.737397695869965 8.233551901382397 1.671574733174778 
2.044101845911649 8.006562464221387 1.598729905929373 
1.658639034042285 8.880274879505958 1.748081665925319 
2.018676505654881 8.584889928256249 1.516221531225665 
1.936129379677039 9.009525471295898 1.527917542237229 
2.055294938999714 8.841701597681537 1.722179349697656 
1.841872914195225 8.481628864026458 1.526622710309117 
1.823659292131191 8.150205181667296 1.780751507151739 
1.960636199169018 9.229120012532029 1.565001719183907 
2.032736350685217 8.116481885319841 1.578246168666347 
1.929174959463714 7.742049407256294 1.554490912786843 
2.016652028490375 8.387992798421431 1.565483785553648 
2.063584514435471 8.371451821638008 1.656493740719714 
1.763919382948658 8.843919532323719 1.748319180875703 
1.942207840295703 8.186492390502295 1.703044239058385 
1.796001695070786 9.06834783709165 1.757244017912504 
1.85512265343593 8.229103686652314 1.624139848358088 
1.753434578308251 7.878935673481974 1.690321723928623 
1.665467843480606 8.978019660318347 1.657623389880037 
1.923157424548224 8.189851302958807 1.663363878214573 
2.056449659148217 8.153676103088024 1.642751679582516 
1.781974430717697 8.67906046596454 1.619265447707442 
1.838733921684655 8.633420305394708 1.709046701946096 
2.125157101423368 8.689992492786386 1.666465812590359 
1.92011838250614 8.570463578067155 1.510825041138703 
1.754927109714086 9.019811345526836 1.753083217616856 
1.972021401475351 7.775343737610497 1.582149942008908 
2.088016947208446 8.824087052615168 1.67434054051512 
1.912022537689521 9.268041562859363 1.669420043915344 
2.129982446365219 8.701682141130444 1.657785903669271 
1.993483774487307 9.038606202653632 1.541494920198155 
1.767647262217402 8.068399688512057 1.821533116163979 
1.881987723326055 8.912543997829736 1.733274493581569 
2.00031978701635 7.854585921788888 1.70328092539234 
1.899354720883138 7.866377031020152 1.597248749207663 
1.746231204859499 8.418554994941328 1.711777516671383 
1.766652318862307 9.00801107189325 1.759611992112638 
1.924620972065778 8.423626555679563 1.584329101093069 
1.949188782582293 8.00744911955716 1.52827085487384 
1.729110220267355 7.938713505933597 1.778985967586416 
1.944136342174007 8.808080189435477 1.730986992018028 
1.866914543151991 8.217115386532745 1.672347401364097 
2.088946994019302 8.556043732561996 1.662633083919156 
1.873817799264629 9.203820773852321 1.688965296818955 
1.875733725230914 8.968243996049701 1.498784307206111 
1.734052155921941 7.864025005313139 1.711859325981016 
1.726940526784833 9.02880998071705 1.733685854303366 
1.962972853632967 8.273815227072404 1.720989184604764 
1.837306796955198 8.368615173842656 1.544150157903686 
1.894209968698482 7.826748033603059 1.584328584772373 
1.76114158899141 8.77559196465765 1.644324186741916 
2.161749728559728 8.827185569630799 1.629756064125092 
2.082319695323552 8.932811883177159 1.68101403073383 
1.765115244623876 8.982822840220571 1.551896332242221 
1.809728244157926 8.372646491518893 1.56326710642674 
1.92438750180443 7.97624193777058 1.555500680771855 
1.919029226416187 7.946189984613018 1.572385126435209 
1.940641574882158 8.778317870344992 1.515888178054641 
1.950340143989622 7.743522405049449 1.636359719329491 
1.917896599127026 8.106539239715444 1.572499031742178 
1.748734584806373 8.241908531637218 1.658384997020559 
2.021218509621493 8.494569169187372 1.760027782281791 
2.023252335016288 8.301958748849509 1.562215112743495 
2.044954804876258 8.027520011187065 1.629457585065883 
2.082532790078363 8.957655236651359 1.546016184640023 
1.809741946744813 8.830070573081166 1.575274908568588 
1.819876606826591 9.031330670524326 1.523969842521743 
1.957487893643069 9.078916663636077 1.691662354864981 
2.022056183871171 9.21281747672149 1.625357674251331 
2.001693411283766 9.187876759036808 1.67731567970594 
1.952700434492713 8.121748392903257 1.707814852985135 
1.800238758345378 8.404423938089209 1.758495851794863 
1.805970500303396 8.912952013950258 1.493122726287129 
2.115906772214642 8.73803493925374 1.675972596723029 
1.788890139836379 8.69457818676722 1.650520312795072 
1.768551873644222 7.969895220590963 1.654846480988494 
2.060562924670919 8.559200929275539 1.735371276659764 
1.848674778823929 8.673102358493248 1.509938772650349 
1.743597944634053 8.383428220113046 1.662731873123183 
1.822973772400533 9.167106832280105 1.689601431128557 
1.921894021678314 8.284595935605942 1.651547804035361 
1.910214384326435 8.590415700197342 1.748874281623389 
1.772057716389111 8.641783224751196 1.627302391858672 
2.0177104043084 8.270864223236448 1.741379920252833 
2.0694577312766 8.494380955112549 1.580474430600022 
1.883574116527802 8.297931578238821 1.686193004944584 
1.988692341917215 8.792103768201819 1.727744529253135 
1.899942881387561 8.389327305692646 1.671968117938667 
2.144446358956904 8.869746346534399 1.570592650331796 
1.867053967044647 8.175719613620458 1.673353699845278 
2.082708791927451 8.647067883365771 1.701285647635837 
1.829469866962775 8.324536021613495 1.766246621039091 
1.762184450039887 8.541739712282993 1.605927677569443 
1.936159804537604 8.021457815464196 1.535318406788931 
1.738283010902979 8.281708866985857 1.657027942277996 
1.782123531704085 8.806219046820036 1.600289399400515 
1.99449442587006 8.211774091624708 1.548065558693484 
1.770638241604412 8.553945903521104 1.702099318175643 
1.858812409256529 8.204220073539876 1.622763691480406 
1.943373109552916 8.959633750633342 1.51737403970722 
1.837449916044781 9.089509680409943 1.649775142765738 
1.8520702466699 8.105277466621553 1.615731517188752 
1.991792162663117 9.01324298351677 1.693821724624084 
1.91200754677195 8.196093936949307 1.62985222860461 
1.949771775565488 7.911721672796922 1.528161762835289 
1.930539329359388 8.225290862467975 1.658905526604089 
1.866680930619995 8.254123626357098 1.735550436059287 
1.991334340783057 9.085029157430027 1.584879601472672 
1.77863750728179 8.495230960250725 1.576648448529457 
1.815545567364683 9.042514175043856 1.668330854631397 
1.899662433107073 9.226912907277217 1.706803541138637 
2.026008664886969 8.070373911172906 1.698831928776377 
1.741705919397319 8.573886095368728 1.654020432549663 
2.121737389339212 8.96527138251842 1.578876158269879 
1.680123789893483 8.879307791424388 1.713874339240108 
1.761775633056649 8.842066777760218 1.738696392024648 
1.99215356549793 9.077569127973549 1.639606378384774 
1.950287723456852 8.110628744217212 1.671588782083223 
1.900735438902334 8.807334330034813 1.721556880394379 
1.794322779295078 8.282971773464375 1.783043648127764 
1.806979604348821 8.23277070147906 1.594313046039902 
1.933406799102222 7.911409027324842 1.531453265713041 
1.768172292905007 8.806945790052344 1.773920835373836 
1.751366310921564 8.271333872561968 1.751591436389688 
1.793095734809081 8.567703150837286 1.552635050914845 
2.073896529564249 8.494397367719429 1.654998040411656 
1.798564741378677 8.535208908821023 1.544873155942121 
1.752139896566435 8.492845049323481 1.631479118794354 
1.995165419301107 9.203330539973784 1.601312179258775 
1.906728750592098 8.484162690161057 1.535409699157381 
1.698548991148155 7.747302424856059 1.83868734205324 
1.810007463160861 9.033991028372327 1.540806089455952 
1.765211478228469 8.604240726766932 1.654845294570821 
1.744294550194206 7.815270935752223 1.697909930511127 
1.836468879091092 8.568862264306265 1.708765988041182 
1.928070542043742 9.279151472465356 1.644340289944422 
1.948409649729783 8.879884801063586 1.760740611689853 
1.820734592428063 8.311326008242672 1.560441737160662 
1.910022096920241 8.983146693084272 1.678732554865026 
1.779067739540028 9.002834841083818 1.538305762554897 
1.754637079721973 8.016741673833996 1.816653699920781 
1.734762676342445 9.006509774178424 1.690509253007395 
2.073744996100415 8.81949061446509 1.673183944534209 
2.102260798245632 8.700238004506303 1.575724884192085 
1.859779330377622 7.999934147345799 1.65133170827345 
2.037567790048037 9.035767640261232 1.573067330333816 
1.953213619507935 9.099712579905251 1.57043365785497 
1.996306181653788 7.938537261112091 1.544956434167589 
1.737243083735645 8.746425034208574 1.766608379513836 
1.969743561617928 8.798887332964519 1.49746621173945 
1.895202712060483 7.887137045927737 1.639472894277884 
2.026920413376896 9.174204808092503 1.612853562094111 
2.022204274776704 7.868536051993257 1.567820642195342 
1.979468078455083 8.989989538199065 1.51946983845653 
1.80372751513112 8.371877854002417 1.764805640492418 
1.923807415104955 8.947648167628769 1.504748980889863 
2.062115203326706 8.36569297537998 1.68596110200252 
1.789641008712479 8.682602404190124 1.647237472533218 
1.818224238487321 8.686933183437924 1.731197729736859 
1.808976520325593 9.011312803064383 1.514299105568912 
1.868064097993587 8.334178848350309 1.583784049425235 
2.025046855680522 8.428181856320291 1.743814486061494 
1.853095088713723 8.272915629418875 1.602852932955694 
2.145728037396098 8.752119486175326 1.657352560646074 
2.012066372346339 9.185038264091881 1.605191706711616 
1.835596818305733 8.44695990303979 1.536970370555585 
1.81462423380445 8.329189921186584 1.56280871836986 
2.123697423575192 8.604013526989876 1.620777113543491 
1.941565601001517 8.478050197026299 1.567173084498719 
2.081851727021604 8.8117974812504 1.674067437114565 
2.055143356689558 8.270415484499669 1.682845389809416 
1.991494053860411 9.035638641085667 1.676495664135006 
2.027350069459852 8.673332781401768 1.721819057656782 
1.899336809940681 8.379036997737863 1.611895634538815 
1.841604854941463 8.453631047667912 1.530475220125953 
2.053116287249443 8.136570454769156 1.623279272201932 
1.99818937860318 8.3819844369898 1.555683186110515 
1.93303578293812 8.011734017963706 1.536226447911189 
1.752964178145835 8.898250349760893 1.611524597300572 
1.960320229965296 7.884110066405398 1.684687642803644 
1.947915124087785 8.84725840106363 1.760151852214304 
1.775891880245046 8.485286691864124 1.581480444315104 
1.900689948486013 9.255520163657929 1.68922579606005 
1.786261139549648 8.331621725008493 1.772494184736625 
1.922409657225275 8.755483179768229 1.530797605258156 
1.945181993753112 7.812533318941609 1.530685192090401 
1.739948460674764 8.168329909191797 1.750445778188434 
1.89119881799314 8.450986673890039 1.70582918127349 
1.863400887432412 8.84454305032779 1.510632278681189 
1.873592848504243 8.26057063910932 1.678221497009939 
1.846894849643939 9.16513387521954 1.697401637616957 
1.937175674299864 7.744118890904029 1.672769534688048 
1.916949489699633 8.324593469296921 1.6604651271862 
2.115477167725608 8.589892663219615 1.643943824229232 
2.123225684454504 8.830969564041629 1.666538911510867 
1.779954613215019 8.372503099949803 1.759263095708257 
1.771093103958746 8.787443951331362 1.763188750053192 
2.044459140616993 8.261649863372515 1.715255130892466 
1.900028630478574 8.980952529438156 1.677437221754247 
2.060293307304555 8.573133432230897 1.566575675030676 
2.054172239873179 8.283106572764908 1.601396358439922 
1.902615973604315 7.783785939868764 1.659838868781558 
1.927288050572754 9.124262347210021 1.53151557166077 
1.859015185024439 8.869279441914312 1.485592084066486 
1.783411808830792 8.179020141497389 1.619461888704508 
1.809990730047456 8.010645600356877 1.632708696655691 
1.786951535273219 8.197156970653925 1.804032134531557 
1.963410892243635 8.505105117430325 1.537877474967117 
1.827191593154838 8.976087079321552 1.494787377413012 
2.136082569788181 8.752369409734733 1.661420058672612 
2.012021099187203 8.804655079243309 1.505607647456752 
1.92403084271541 8.18823952368518 1.56063734115377 
1.930737231594422 8.889281489690424 1.752937662481265 
1.727814456082904 7.846180564694523 1.732907425175258 
1.934709113453022 8.632792154068662 1.74361988403748 
2.099438247232689 8.894660571769892 1.657366782949139 
1.751808790528762 7.842436048937064 1.831536455635501 
1.751455541742344 7.759230978813827 1.855990716189375 
1.762453331467082 8.828959642992329 1.738826552780568 
1.908523871140781 7.91494566662999 1.655380259042156 
2.032104670160557 8.362296219075489 1.564406168677984 
1.689724298732155 8.922364528899985 1.792951265569089 
1.907865549573272 8.510690221145051 1.524192342389249 
1.950108395025373 8.627960847638231 1.509748928576712 
1.923324715396165 9.01222236458063 1.528524134874829 
1.780879164065216 8.750938359549954 1.566641387756989 
2.0593589805335 8.733209419287755 1.689127239709238 
1.98819750268096 7.940696627636538 1.538556572332106 
1.957731805395053 9.074949473270552 1.547625480840017 
1.874847713664299 8.127941188137095 1.692606538689557 
1.991675533183579 8.064247444361516 1.73700429761023 
1.865036653571682 8.298654669325632 1.740337315869418 
2.020820640750594 8.027415771887412 1.568073027261751 
1.784554308445415 8.709780155325392 1.604624703921657 
2.037962178089643 9.043708890758959 1.616481237044709 
2.045507040112759 8.361843813420915 1.604140108480945 
1.763444814976897 8.408028893910725 1.605674264937369 
1.915370400437678 8.406922946931566 1.593032301303567 
1.991574802665589 8.255260305908646 1.54335352255018 
2.07149974588289 8.48316132647235 1.602687440103067 
1.909548423256623 7.978332708695102 1.643450605622735 
2.042839755211396 8.061226464703891 1.593745495449979 
1.77174099999669 8.350472455976364 1.60798743980369 
2.008480305943451 8.753904677777847 1.502311182494431 
1.738699599614834 8.025209326096167 1.684678722769247 
1.754850453438506 8.941182452707183 1.754096767210737 
1.859469490554986 8.634446575099661 1.503482149515393 
1.887080397385174 8.919899142769891 1.505123739858765 
1.89975647315201 9.249876466995236 1.58184974860784 
2.128465628693577 8.585638364729181 1.705409833051319 
2.064815012969432 8.61620116356529 1.724967607189338 
1.991294983503996 9.043358137361095 1.662336668642914 
1.938209815414241 9.208207942899246 1.734268355379931 
1.979261513027508 8.376716094476761 1.555728335354724 
2.060153617552727 8.841853392502129 1.529817922530857 
1.751288241179379 7.800084548751771 1.748637481178924 
1.913771639669308 9.27241045017418 1.617858186074897 
1.915914034115062 8.076115038710743 1.573599411185814 
1.939244969440332 8.404220798450964 1.713070692033488 
1.752407235625978 8.945834005029731 1.732790027404038 
1.897358543912578 7.845913415636162 1.651080221676359 
1.824236569307776 7.803433244717487 1.770263737467576 
1.79450470229139 9.000290366502607 1.705042433491589 
2.060155885232587 8.524294669839842 1.563879876684715 
1.955923963525007 8.766252803772376 1.527278782795914 
1.755351855596126 8.882598677310904 1.753804342938039 
2.073026221331592 8.558704683839538 1.597651557284612 
1.756304777716814 8.048276950001593 1.780783919323467 
1.96124953272479 8.261365694216785 1.720023075179734 
1.974199731945444 8.34362574584739 1.740145812325568 
1.802596753670339 7.824372004344792 1.830437481344831 
1.906667290695399 8.435297169038996 1.6756638517991 
2.007800415428922 8.784556235257295 1.777409700311296 
2.065422493460286 8.663589970640448 1.579899199593316 
1.777077337683117 8.727198490777909 1.702971533609398 
2.006437491479223 8.036314874683715 1.725088721718158 
2.006495666269206 8.737930356580415 1.502211071534301 
1.989381670993889 8.737039596043093 1.706532757108118 
2.108392839384716 8.815786153427895 1.681185012859014 
1.735736858257283 8.108840731842303 1.719025801628907 
1.851699151845489 8.336395987989361 1.751611610192134 
2.079804808748467 8.885538117786414 1.713842986134847 
1.993852063071503 9.136428407498979 1.597717769471708 
1.924308680729261 8.07619571185268 1.55442558510619 
1.891056300749011 9.028471567391277 1.681125317288426 
1.927260401039845 8.656858063917507 1.519924503191928 
2.173668779484118 8.815100928209869 1.626233554031578 
1.776318410018939 8.006689564225015 1.826738696442829 
2.015856256679863 9.236460555900484 1.632687812702102 
1.995093621596608 7.9574045985509 1.543202172679983 
2.064538761731972 8.263748007438823 1.633041096892745 
1.950005044978261 8.994712047979613 1.676889957295241 
1.846199020170878 8.848759230241205 1.746653356052714 
1.811761595391646 8.677460880125897 1.728037149483521 
1.910863869853373 8.359320125022343 1.649865179049325 
1.819716887324068 8.967839053819906 1.495088351683227 
2.038213509570622 8.150204502526439 1.583119719750943 
1.81976628021937 8.098322371947296 1.615955115082293 
1.761104744468238 8.07161747830555 1.650566917014307 
1.986636995756972 9.066861866689406 1.577258969382903 
1.858712618717116 7.906489004797443 1.676922463206467 
1.943666154707763 7.877562149304887 1.676082503780344 
1.8695026907659 8.563102443815524 1.722516434792499 
1.900315062004524 8.89205119482666 1.509807334827426 
2.027274167905291 7.975620434901144 1.680874087683018 
1.743789297335771 8.753002643342111 1.720499249179947 
1.739905923113785 9.025352637363442 1.577582850169579 
1.983409521026919 8.796496538362794 1.793749468101109 
2.002780540006193 9.143310103219868 1.678428321118635 
2.015119083398625 8.791789022867668 1.749513655340956 
1.810908339080883 7.894913767885643 1.659152872358977 
1.771474459000166 8.703799933920134 1.647854879965315 
1.824108564050174 9.002488819014172 1.721496391716371 
1.673493923878085 8.941083010184082 1.785964542248756 
1.750681262776977 8.193840863259954 1.649189200447769 
1.699529022590178 9.025741224702847 1.700378469176094 
1.868387851798591 8.227518506615118 1.674607155183254 
1.744702885864717 8.375087254748472 1.657055434809492 
2.120425690051813 8.647157411386079 1.684415660254368 
1.805694822888159 9.03756207193533 1.602518407447771 
2.007897722734729 8.085785682881701 1.726605632020456 
2.000895294488866 9.053638493111883 1.676048390901369 
2.126763642064842 8.757588755523216 1.532240867577045 
2.06627221858711 8.651726206995553 1.521586142824065 
1.933685112333685 8.808339672198302 1.729384650233721 
1.84490207626339 8.677059581173848 1.72077004293583 
1.773492850070488 8.123070013680614 1.637992970809893 
1.77368461490621 8.80267699574933 1.608494371784056 
2.025547623122559 9.193585782883744 1.616229504240741 
1.738183169902734 8.762875978108454 1.783657712450634 
1.90038381261053 9.189451784570338 1.720187796137975 
1.831282820052901 7.986835502818506 1.773899960916538 
2.091516826067088 8.558559816800273 1.696543591653288 
1.914988891821702 9.241655983373676 1.708761462724852 
1.95261233448807 7.744412477005087 1.689212105576315 
1.83026739247549 8.350621648333854 1.763455402070297 
2.0532083293414 8.888009813367075 1.716575279208866 
1.773337841043147 8.921909258676497 1.704994039247016 
1.967081850316621 8.999716091292399 1.682062641924901 
1.842193989229299 8.44813180753809 1.742206436350064 
2.073126117544014 8.577317842896468 1.648296780628813 
1.856367424652349 8.323092233172044 1.74829906807313 
1.726851678759069 7.991891563007002 1.739393698988773 
1.968232338694047 8.987376507361809 1.520957436899151 
1.764503833355601 8.261845617018459 1.621821605694479 
1.948455408780143 8.778381019975789 1.523947396728811 
1.779386594293146 8.556096230741158 1.572442440045189 
1.784119168512809 9.016795018514394 1.689744158004686 
2.04788363902881 8.881792786775037 1.723213402440044 
1.988001619013269 8.039191347692256 1.531475323445563 
2.087230262149198 8.716451670879477 1.730932374201168 
1.867955944192811 9.103923650994631 1.609006011621937 
1.931670934669151 9.197916889450926 1.733961458420146 
1.786977263872033 8.824609534517776 1.689283496802353 
1.775700630239683 8.657363476367005 1.611210313372122 
1.909111700586224 8.175228730043463 1.617977471635599 
2.065931406387825 8.318736251993675 1.645345384371347 
1.799596377583006 8.96674917429489 1.530707377591246 
1.947707675098065 8.076205048109674 1.665084133997067 
2.055853790450766 8.603797800072133 1.535552070673111 
2.065162583135455 8.861787915224138 1.714806805572 
1.874294841524651 9.172833436972642 1.574633577277678 
2.022728472729904 7.839271583343133 1.560218797716734 
1.787067300133868 9.064887339675179 1.736374184997039 
1.798179820725557 7.782876327941553 1.705868803266677 
1.742580347866078 8.05015834581487 1.672162470011931 
2.064613403065144 8.703939097940754 1.703557258956041 
2.019968127390793 7.958857346677531 1.57468709540716 
2.139777163465977 8.932667200514418 1.623014797633002 
1.759044540449399 8.954287741811932 1.728752451214883 
1.767095447129817 8.837603278865178 1.671107276384436 
1.672129858106016 8.977487174422233 1.764586590998311 
2.027609617413489 9.145611728510939 1.623329455260656 
1.92204966244091 7.953597032169043 1.564044326313394 
1.946926676903117 8.26601731924876 1.709522836867074 
1.775893543229923 8.575561929417837 1.698429322818687 
1.965170129022215 8.778506428310887 1.714879934202996 
1.868443189336291 9.222848866423167 1.598088922831516 
2.033943880915338 8.113860864652434 1.587669647501792 
1.880206213544007 9.157052925185837 1.699006432019631 
1.747474304697958 8.426481250558933 1.645556629589737 
1.761254780494325 9.017568384953949 1.784008868256399 
2.008590788934356 8.831483854178476 1.505159818266584 
1.762363981268333 8.868373519725061 1.705825985959048 
1.800830526418071 8.462767577422378 1.74768515334474 
2.105390826717449 8.870969157011265 1.549033236648339 
2.033014009474385 8.719698590811944 1.519164303419164 
2.046207459845832 8.812370170317614 1.52832070818523 
1.976944370144372 8.734526567674179 1.716384711165084 
1.815854382178223 8.904585711175857 1.505913562713758 
1.879853643104666 8.368439388598008 1.715232834571481 
2.033155306937606 8.894038583352179 1.730796967322145 
1.968473935640745 9.097174915476002 1.721060495533798 
1.768664524452084 8.541269907342828 1.592934573881218 
1.836173799053856 7.803297154317818 1.685674029103591 
1.966456671704168 8.734857956842815 1.491955640471454 
1.948462760116545 7.743766915420151 1.649371843368113 
2.054663293201334 8.252851782002413 1.606466013616684 
1.853461838866844 7.845054899761483 1.713750505447555 
2.063050435688545 8.360174917443709 1.694798810316967 
1.761275255853504 8.569479836861872 1.658041565553722 
1.835279968402945 8.796204183694396 1.745348443737921 
1.913191662949688 8.657323128753177 1.745711692822476 
2.011828027735016 9.185269006287374 1.645967579075619 
1.91174392955694 7.998125783690741 1.6119895090259 
2.038787027741168 8.1056368087945 1.594015940061329 
